<?xml version="1.0"?>
<opencv_storage>
<ring32_8 type_id="opencv-matrix">
  <rows>30</rows>
  <cols>209</cols>
  <dt>f</dt>
  <data>
    1.68589020e+01 1.68586159e+01 1.68585491e+01 1.68585777e+01 1.68594074e+01 1.68614998e+01 1.68627853e+01 1.68604164e+01 1.68587036e+01 1.68587074e+01 1.68589611e+01 1.68592720e+01 1.68591499e+01 1.68585796e+01 1.68591137e+01 1.68593788e+01 1.68589020e+01 1.68585510e+01 1.68585854e+01 1.68588810e+01 1.68591652e+01 1.68594761e+01 1.68605518e+01 1.68610096e+01 1.68602314e+01 1.68592205e+01 1.68586044e+01 1.68585644e+01 1.68585777e+01 1.68587589e+01 1.68597183e+01 1.68620834e+01 1.68653870e+01 1.68640366e+01 1.68609924e+01 1.68591652e+01 1.68594131e+01 1.68600235e+01 1.68606071e+01 1.68607349e+01 1.68612423e+01 1.68612785e+01 1.68613033e+01 1.68601742e+01 1.68590755e+01 1.68585567e+01 1.68587589e+01 1.68588619e+01 1.68588028e+01 1.68586979e+01 1.68588505e+01 1.68587017e+01 1.68586807e+01 1.68596573e+01 1.68600368e+01 1.68598900e+01 1.68596363e+01 1.68589172e+01 1.68588333e+01 1.68604717e+01 1.68640003e+01 1.68664188e+01 1.68646812e+01 1.68599586e+01 1.68586674e+01 1.68585911e+01 1.68591423e+01 1.68644104e+01 1.68680153e+01 1.68659458e+01 1.68630409e+01 1.68606777e+01 1.68609352e+01 1.68594475e+01 1.68587494e+01 1.68609142e+01 1.68599300e+01 1.68585892e+01 1.68596478e+01 1.68587494e+01 1.68586178e+01 1.68596439e+01 1.68599548e+01 1.68586941e+01 1.68587132e+01 1.68601398e+01 1.68599186e+01 1.68599091e+01 1.68606853e+01 1.68610764e+01 1.68613224e+01 1.68608227e+01 1.68599491e+01 1.68590107e+01 1.68586426e+01 1.68585968e+01 1.68586617e+01 1.68586636e+01 1.68596439e+01 1.68589764e+01 1.68591156e+01 1.68596344e+01 1.68586540e+01 1.68605309e+01 1.68608627e+01 1.68593807e+01 1.68593006e+01 1.68587475e+01 1.68585567e+01 1.68587704e+01 1.68591061e+01 1.68588905e+01 1.68586426e+01 1.68586292e+01 1.68587170e+01 1.68586922e+01 1.68586216e+01 1.68593388e+01 1.68610935e+01 1.68607063e+01 1.68591404e+01 1.68586502e+01 1.68594151e+01 1.68596249e+01 1.68587284e+01 1.68625660e+01 1.68608894e+01 1.68585529e+01 1.68591881e+01 1.68586521e+01 1.68597221e+01 1.68589230e+01 1.68586178e+01 1.68590050e+01 1.68586979e+01 1.68585529e+01 1.68587151e+01 1.68586559e+01 1.68586445e+01 1.68596668e+01 1.68588772e+01 1.68586102e+01 1.68587055e+01 1.68624859e+01 1.68632298e+01 1.68616638e+01 1.68607693e+01 1.68615761e+01 1.68617077e+01 1.68597775e+01 1.68589134e+01 1.68599949e+01 1.68634663e+01 1.68683472e+01 1.68669548e+01 1.68643494e+01 1.68621082e+01 1.68612423e+01 1.68612137e+01 1.68608208e+01 1.68607006e+01 1.68610325e+01 1.68619366e+01 1.68634167e+01 1.68640671e+01 1.68628845e+01 1.68618774e+01 1.68622837e+01 1.68656101e+01 1.68629627e+01 1.68595104e+01 1.68585796e+01 1.68585434e+01 1.68595791e+01 1.68595390e+01 1.68587494e+01 1.68586235e+01 1.68585758e+01 1.68592777e+01 1.68600330e+01 1.68600464e+01 1.68595390e+01 1.68588581e+01 1.68585873e+01 1.68585396e+01 1.68585491e+01 1.68585739e+01 1.68585262e+01 1.68592529e+01 1.68597012e+01 1.68592033e+01 1.68586082e+01 1.68585548e+01 1.68585892e+01 1.68593788e+01 1.68610153e+01 1.68598156e+01 1.68585701e+01 1.68601074e+01 1.68607368e+01 1.68600101e+01 1.68601246e+01 1.68598728e+01 1.68589821e+01 1.68588085e+01 1.68589783e+01 1.68601437e+01 1.68597374e+01 1.68599091e+01
    1.02470446e+01 1.02469730e+01 1.02469606e+01 1.02469778e+01 1.02469997e+01 1.02470732e+01 1.02471457e+01 1.02470627e+01 1.02469816e+01 1.02469740e+01 1.02469664e+01 1.02469902e+01 1.02469854e+01 1.02469816e+01 1.02469797e+01 1.02469873e+01 1.02469912e+01 1.02469740e+01 1.02469645e+01 1.02469854e+01 1.02469721e+01 1.02469950e+01 1.02470264e+01 1.02470284e+01 1.02470093e+01 1.02469797e+01 1.02469807e+01 1.02469625e+01 1.02469759e+01 1.02469711e+01 1.02469978e+01 1.02470398e+01 1.02471123e+01 1.02470827e+01 1.02470140e+01 1.02469759e+01 1.02469902e+01 1.02470064e+01 1.02470055e+01 1.02470121e+01 1.02470121e+01 1.02470207e+01 1.02470255e+01 1.02469950e+01 1.02469797e+01 1.02469645e+01 1.02469759e+01 1.02469711e+01 1.02469797e+01 1.02469749e+01 1.02469664e+01 1.02469654e+01 1.02469740e+01 1.02469950e+01 1.02470160e+01 1.02470112e+01 1.02469711e+01 1.02470112e+01 1.02471180e+01 1.02471085e+01 1.02471027e+01 1.02471342e+01 1.02471142e+01 1.02469940e+01 1.02469778e+01 1.02469664e+01 1.02469740e+01 1.02471161e+01 1.02472515e+01 1.02471743e+01 1.02470779e+01 1.02470217e+01 1.02470684e+01 1.02470665e+01 1.02469769e+01 1.02469864e+01 1.02470036e+01 1.02469778e+01 1.02469950e+01 1.02469740e+01 1.02470131e+01 1.02470121e+01 1.02469769e+01 1.02470493e+01 1.02470341e+01 1.02470016e+01 1.02469969e+01 1.02469988e+01 1.02470140e+01 1.02470255e+01 1.02470198e+01 1.02470226e+01 1.02470064e+01 1.02469807e+01 1.02469816e+01 1.02469606e+01 1.02469721e+01 1.02469664e+01 1.02469769e+01 1.02469740e+01 1.02469893e+01 1.02470226e+01 1.02469797e+01 1.02469854e+01 1.02469940e+01 1.02469778e+01 1.02469997e+01 1.02469959e+01 1.02469702e+01 1.02469654e+01 1.02469807e+01 1.02469816e+01 1.02469835e+01 1.02469730e+01 1.02469873e+01 1.02469711e+01 1.02469749e+01 1.02469921e+01 1.02470322e+01 1.02470217e+01 1.02469797e+01 1.02469683e+01 1.02469864e+01 1.02469893e+01 1.02469730e+01 1.02470551e+01 1.02470236e+01 1.02469769e+01 1.02469921e+01 1.02469625e+01 1.02470055e+01 1.02469740e+01 1.02471800e+01 1.02473803e+01 1.02472973e+01 1.02470169e+01 1.02469702e+01 1.02469673e+01 1.02470255e+01 1.02470808e+01 1.02469997e+01 1.02469654e+01 1.02469816e+01 1.02470636e+01 1.02470789e+01 1.02470360e+01 1.02470217e+01 1.02470436e+01 1.02470484e+01 1.02469969e+01 1.02469816e+01 1.02469797e+01 1.02469969e+01 1.02470541e+01 1.02470741e+01 1.02470951e+01 1.02470427e+01 1.02470293e+01 1.02470341e+01 1.02470293e+01 1.02470264e+01 1.02470217e+01 1.02470369e+01 1.02470703e+01 1.02470522e+01 1.02470255e+01 1.02470207e+01 1.02470522e+01 1.02471266e+01 1.02471142e+01 1.02470455e+01 1.02469826e+01 1.02469778e+01 1.02469740e+01 1.02469788e+01 1.02469683e+01 1.02469959e+01 1.02470131e+01 1.02469759e+01 1.02469749e+01 1.02469997e+01 1.02469931e+01 1.02469864e+01 1.02469721e+01 1.02469778e+01 1.02469606e+01 1.02469702e+01 1.02469654e+01 1.02469778e+01 1.02469978e+01 1.02469893e+01 1.02469645e+01 1.02469702e+01 1.02469759e+01 1.02470045e+01 1.02470331e+01 1.02470016e+01 1.02469769e+01 1.02469969e+01 1.02470188e+01 1.02470007e+01 1.02469997e+01 1.02469816e+01 1.02469778e+01 1.02469683e+01 1.02469797e+01 1.02470064e+01 1.02469959e+01 1.02470322e+01
    4.43114204e+01 4.43114700e+01 4.43114014e+01 4.43114738e+01 4.43114548e+01 4.43117371e+01 4.43119621e+01 4.43118858e+01 4.43116035e+01 4.43114548e+01 4.43114433e+01 4.43115311e+01 4.43115692e+01 4.43113976e+01 4.43114967e+01 4.43114471e+01 4.43114777e+01 4.43114548e+01 4.43114395e+01 4.43113937e+01 4.43114777e+01 4.43114891e+01 4.43116150e+01 4.43116570e+01 4.43116226e+01 4.43115463e+01 4.43114471e+01 4.43115158e+01 4.43114471e+01 4.43114700e+01 4.43115005e+01 4.43116760e+01 4.43119431e+01 4.43117905e+01 4.43116264e+01 4.43115463e+01 4.43114853e+01 4.43115425e+01 4.43116531e+01 4.43117218e+01 4.43116302e+01 4.43116417e+01 4.43116646e+01 4.43115730e+01 4.43114090e+01 4.43114891e+01 4.43114090e+01 4.43114510e+01 4.43114624e+01 4.43115082e+01 4.43114052e+01 4.43114548e+01 4.43114357e+01 4.43114929e+01 4.43115654e+01 4.43115807e+01 4.43116074e+01 4.43114891e+01 4.43114204e+01 4.43117256e+01 4.43117981e+01 4.43117981e+01 4.43117371e+01 4.43115387e+01 4.43114777e+01 4.43113747e+01 4.43115044e+01 4.43117256e+01 4.43119812e+01 4.43118935e+01 4.43117638e+01 4.43116035e+01 4.43115654e+01 4.43114586e+01 4.43115654e+01 4.43116798e+01 4.43115501e+01 4.43114700e+01 4.43115463e+01 4.43114395e+01 4.43114357e+01 4.43115425e+01 4.43115997e+01 4.43115005e+01 4.43114052e+01 4.43114815e+01 4.43114586e+01 4.43115005e+01 4.43114853e+01 4.43116112e+01 4.43115807e+01 4.43115883e+01 4.43115730e+01 4.43114777e+01 4.43114243e+01 4.43114090e+01 4.43114929e+01 4.43114700e+01 4.43114471e+01 4.43114967e+01 4.43115044e+01 4.43115349e+01 4.43114243e+01 4.43116341e+01 4.43115463e+01 4.43114700e+01 4.43114929e+01 4.43115463e+01 4.43114662e+01 4.43114471e+01 4.43114243e+01 4.43114243e+01 4.43114548e+01 4.43114777e+01 4.43114433e+01 4.43114738e+01 4.43113937e+01 4.43114662e+01 4.43116760e+01 4.43116035e+01 4.43114929e+01 4.43114700e+01 4.43114929e+01 4.43115158e+01 4.43113937e+01 4.43116684e+01 4.43115807e+01 4.43114548e+01 4.43115044e+01 4.43113823e+01 4.43114662e+01 4.43114128e+01 4.43115273e+01 4.43114281e+01 4.43114777e+01 4.43114014e+01 4.43114128e+01 4.43114738e+01 4.43114815e+01 4.43114853e+01 4.43114586e+01 4.43114586e+01 4.43114777e+01 4.43117027e+01 4.43117561e+01 4.43116417e+01 4.43116264e+01 4.43117218e+01 4.43117180e+01 4.43115387e+01 4.43113976e+01 4.43115273e+01 4.43118858e+01 4.43122444e+01 4.43120155e+01 4.43117599e+01 4.43116684e+01 4.43116798e+01 4.43116875e+01 4.43115883e+01 4.43115234e+01 4.43115845e+01 4.43116608e+01 4.43117905e+01 4.43117905e+01 4.43116722e+01 4.43116341e+01 4.43116112e+01 4.43118439e+01 4.43116989e+01 4.43115120e+01 4.43114204e+01 4.43114319e+01 4.43115616e+01 4.43114281e+01 4.43114204e+01 4.43114815e+01 4.43114471e+01 4.43115387e+01 4.43115158e+01 4.43115196e+01 4.43114662e+01 4.43114433e+01 4.43114471e+01 4.43114433e+01 4.43114166e+01 4.43113899e+01 4.43114815e+01 4.43114815e+01 4.43114929e+01 4.43115120e+01 4.43114052e+01 4.43113937e+01 4.43114166e+01 4.43114853e+01 4.43116341e+01 4.43115082e+01 4.43114738e+01 4.43115463e+01 4.43115997e+01 4.43115273e+01 4.43115883e+01 4.43116035e+01 4.43114586e+01 4.43113976e+01 4.43114891e+01 4.43115807e+01 4.43115120e+01 4.43114929e+01
    1.27741982e+02 1.27742271e+02 1.27742027e+02 1.27741989e+02 1.27742210e+02 1.27742401e+02 1.27742630e+02 1.27742401e+02 1.27742226e+02 1.27742142e+02 1.27742256e+02 1.27742424e+02 1.27742599e+02 1.27742065e+02 1.27742493e+02 1.27742439e+02 1.27742043e+02 1.27741966e+02 1.27742348e+02 1.27741997e+02 1.27742378e+02 1.27742470e+02 1.27742622e+02 1.27742668e+02 1.27742401e+02 1.27742439e+02 1.27742180e+02 1.27742287e+02 1.27742256e+02 1.27741692e+02 1.27742264e+02 1.27742607e+02 1.27743256e+02 1.27743484e+02 1.27742668e+02 1.27742378e+02 1.27742493e+02 1.27742195e+02 1.27742516e+02 1.27742531e+02 1.27742699e+02 1.27742859e+02 1.27742691e+02 1.27742523e+02 1.27742020e+02 1.27742081e+02 1.27742050e+02 1.27742477e+02 1.27742088e+02 1.27742622e+02 1.27742241e+02 1.27742157e+02 1.27741943e+02 1.27742126e+02 1.27742653e+02 1.27742493e+02 1.27742218e+02 1.27742218e+02 1.27742477e+02 1.27742119e+02 1.27742401e+02 1.27743294e+02 1.27743004e+02 1.27742340e+02 1.27742401e+02 1.27742256e+02 1.27741890e+02 1.27742599e+02 1.27742554e+02 1.27742416e+02 1.27742264e+02 1.27742226e+02 1.27741974e+02 1.27742271e+02 1.27741760e+02 1.27742447e+02 1.27742188e+02 1.27742294e+02 1.27742088e+02 1.27741974e+02 1.27742363e+02 1.27743813e+02 1.27747101e+02 1.27745880e+02 1.27742477e+02 1.27742508e+02 1.27742386e+02 1.27742226e+02 1.27742470e+02 1.27742355e+02 1.27742836e+02 1.27742531e+02 1.27742310e+02 1.27742477e+02 1.27741829e+02 1.27742348e+02 1.27742905e+02 1.27742668e+02 1.27742630e+02 1.27742661e+02 1.27742294e+02 1.27742279e+02 1.27743141e+02 1.27743759e+02 1.27743057e+02 1.27742157e+02 1.27742203e+02 1.27742401e+02 1.27742607e+02 1.27742355e+02 1.27742348e+02 1.27742233e+02 1.27742065e+02 1.27742271e+02 1.27742378e+02 1.27742256e+02 1.27742302e+02 1.27741814e+02 1.27742218e+02 1.27742188e+02 1.27742424e+02 1.27742073e+02 1.27742332e+02 1.27742043e+02 1.27742188e+02 1.27742867e+02 1.27742195e+02 1.27742332e+02 1.27742447e+02 1.27742294e+02 1.27742271e+02 1.27742485e+02 1.27741928e+02 1.27742294e+02 1.27744141e+02 1.27744408e+02 1.27742950e+02 1.27742477e+02 1.27742584e+02 1.27742599e+02 1.27741989e+02 1.27742111e+02 1.27741905e+02 1.27743118e+02 1.27746819e+02 1.27743752e+02 1.27743958e+02 1.27742195e+02 1.27742729e+02 1.27742249e+02 1.27742569e+02 1.27743439e+02 1.27746902e+02 1.27747917e+02 1.27745483e+02 1.27742836e+02 1.27742401e+02 1.27742775e+02 1.27742630e+02 1.27742477e+02 1.27742439e+02 1.27742050e+02 1.27742462e+02 1.27743256e+02 1.27743889e+02 1.27743454e+02 1.27742615e+02 1.27742607e+02 1.27742897e+02 1.27742455e+02 1.27742416e+02 1.27742615e+02 1.27742088e+02 1.27743088e+02 1.27742172e+02 1.27741974e+02 1.27741920e+02 1.27742218e+02 1.27742218e+02 1.27742249e+02 1.27742584e+02 1.27742485e+02 1.27742195e+02 1.27742294e+02 1.27742081e+02 1.27742188e+02 1.27742493e+02 1.27742363e+02 1.27742226e+02 1.27742126e+02 1.27742531e+02 1.27743156e+02 1.27742424e+02 1.27741928e+02 1.27741943e+02 1.27742195e+02 1.27742447e+02 1.27741936e+02 1.27742363e+02 1.27742256e+02 1.27741989e+02 1.27742470e+02 1.27743980e+02 1.27743591e+02 1.27742897e+02 1.27742050e+02 1.27742157e+02 1.27742371e+02 1.27741959e+02
    2.93232941e+02 2.93230438e+02 2.93232025e+02 2.93229797e+02 2.93231171e+02 2.93229706e+02 2.93230591e+02 2.93230469e+02 2.93230591e+02 2.93231110e+02 2.93231232e+02 2.93232178e+02 2.93230804e+02 2.93230225e+02 2.93231415e+02 2.93231323e+02 2.93231659e+02 2.93232574e+02 2.93232239e+02 2.93232208e+02 2.93231689e+02 2.93231537e+02 2.93231232e+02 2.93232269e+02 2.93231445e+02 2.93230225e+02 2.93230164e+02 2.93231384e+02 2.93231476e+02 2.93229584e+02 2.93231689e+02 2.93230133e+02 2.93231140e+02 2.93233246e+02 2.93230560e+02 2.93230682e+02 2.93231598e+02 2.93231079e+02 2.93231476e+02 2.93230591e+02 2.93231628e+02 2.93230072e+02 2.93232178e+02 2.93231354e+02 2.93230408e+02 2.93231689e+02 2.93231781e+02 2.93230408e+02 2.93230774e+02 2.93230530e+02 2.93232086e+02 2.93229767e+02 2.93230591e+02 2.93230408e+02 2.93230713e+02 2.93230286e+02 2.93230835e+02 2.93230835e+02 2.93233215e+02 2.93233704e+02 2.93232971e+02 2.93232941e+02 2.93231476e+02 2.93231384e+02 2.93230652e+02 2.93230225e+02 2.93231781e+02 2.93232544e+02 2.93231842e+02 2.93232727e+02 2.93231140e+02 2.93230591e+02 2.93231110e+02 2.93230316e+02 2.93230804e+02 2.93230377e+02 2.93229919e+02 2.93230103e+02 2.93231049e+02 2.93230377e+02 2.93231659e+02 2.93230591e+02 2.93229584e+02 2.93230347e+02 2.93230988e+02 2.93232056e+02 2.93232330e+02 2.93230347e+02 2.93230560e+02 2.93230927e+02 2.93231171e+02 2.93232849e+02 2.93232056e+02 2.93230469e+02 2.93230682e+02 2.93230896e+02 2.93230499e+02 2.93231110e+02 2.93230499e+02 2.93229248e+02 2.93230164e+02 2.93231384e+02 2.93232483e+02 2.93229980e+02 2.93231964e+02 2.93230957e+02 2.93231445e+02 2.93230743e+02 2.93231415e+02 2.93231384e+02 2.93232147e+02 2.93230804e+02 2.93229584e+02 2.93230713e+02 2.93230286e+02 2.93230927e+02 2.93229858e+02 2.93230804e+02 2.93231049e+02 2.93230804e+02 2.93229736e+02 2.93231293e+02 2.93230835e+02 2.93231689e+02 2.93230103e+02 2.93231323e+02 2.93231903e+02 2.93231506e+02 2.93229523e+02 2.93231537e+02 2.93230682e+02 2.93230957e+02 2.93231689e+02 2.93230408e+02 2.93230347e+02 2.93230530e+02 2.93231537e+02 2.93230438e+02 2.93230988e+02 2.93231079e+02 2.93231323e+02 2.93230225e+02 2.93230042e+02 2.93232239e+02 2.93235657e+02 2.93230896e+02 2.93230621e+02 2.93236725e+02 2.93231201e+02 2.93231079e+02 2.93232300e+02 2.93230896e+02 2.93231354e+02 2.93232330e+02 2.93232666e+02 2.93232391e+02 2.93230560e+02 2.93231903e+02 2.93232361e+02 2.93230927e+02 2.93230347e+02 2.93232025e+02 2.93231476e+02 2.93231140e+02 2.93231567e+02 2.93231384e+02 2.93230743e+02 2.93230957e+02 2.93231354e+02 2.93230774e+02 2.93231354e+02 2.93230194e+02 2.93230042e+02 2.93231201e+02 2.93231781e+02 2.93229919e+02 2.93230133e+02 2.93231293e+02 2.93230957e+02 2.93231232e+02 2.93231750e+02 2.93230255e+02 2.93230347e+02 2.93229828e+02 2.93229919e+02 2.93230774e+02 2.93230804e+02 2.93230682e+02 2.93230408e+02 2.93230408e+02 2.93230743e+02 2.93230133e+02 2.93229584e+02 2.93230743e+02 2.93230682e+02 2.93231262e+02 2.93230103e+02 2.93230957e+02 2.93231689e+02 2.93231049e+02 2.93230560e+02 2.93231354e+02 2.93230896e+02 2.93231476e+02 2.93230652e+02 2.93230652e+02 2.93231384e+02 2.93231262e+02 2.93233337e+02
    5.81635803e+02 5.81652771e+02 5.81642151e+02 5.81640137e+02 5.81644836e+02 5.81666443e+02 5.81674561e+02 5.81650208e+02 5.81636475e+02 5.81640198e+02 5.81643494e+02 5.81654114e+02 5.81654175e+02 5.81649719e+02 5.81662781e+02 5.81667053e+02 5.81651855e+02 5.81634155e+02 5.81635132e+02 5.81634399e+02 5.81637146e+02 5.81644348e+02 5.81663513e+02 5.81680420e+02 5.81676147e+02 5.81662598e+02 5.81641113e+02 5.81637939e+02 5.81647644e+02 5.81640137e+02 5.81634155e+02 5.81636108e+02 5.81639038e+02 5.81649902e+02 5.81645081e+02 5.81642212e+02 5.81638123e+02 5.81643005e+02 5.81644287e+02 5.81638855e+02 5.81635681e+02 5.81635010e+02 5.81634705e+02 5.81637878e+02 5.81661682e+02 5.81701477e+02 5.81725281e+02 5.81693848e+02 5.81666870e+02 5.81638428e+02 5.81638184e+02 5.81636230e+02 5.81636963e+02 5.81638916e+02 5.81642334e+02 5.81638916e+02 5.81635437e+02 5.81643372e+02 5.81657532e+02 5.81681458e+02 5.81659485e+02 5.81634766e+02 5.81640686e+02 5.81648315e+02 5.81829834e+02 5.81896118e+02 5.81744202e+02 5.81647339e+02 5.81638977e+02 5.81644653e+02 5.81637329e+02 5.81638428e+02 5.81664429e+02 5.81723755e+02 5.81860291e+02 5.82001953e+02 5.81924011e+02 5.81779053e+02 5.81672852e+02 5.81733765e+02 5.81817139e+02 5.81837158e+02 5.81791931e+02 5.81778381e+02 5.81881653e+02 5.81880981e+02 5.81829224e+02 5.81682800e+02 5.81635742e+02 5.81655640e+02 5.81666931e+02 5.81649597e+02 5.81645996e+02 5.81752197e+02 5.81875549e+02 5.81845459e+02 5.81721924e+02 5.81763245e+02 5.81804443e+02 5.81836609e+02 5.81722351e+02 5.81645508e+02 5.81645996e+02 5.81653687e+02 5.81684570e+02 5.81712280e+02 5.81728516e+02 5.81738647e+02 5.81692993e+02 5.81660950e+02 5.81638367e+02 5.81641235e+02 5.81642700e+02 5.81653259e+02 5.81659363e+02 5.81652649e+02 5.81639709e+02 5.81637756e+02 5.81641113e+02 5.81639404e+02 5.81676208e+02 5.81751038e+02 5.81772522e+02 5.81746216e+02 5.81705627e+02 5.81656372e+02 5.81633972e+02 5.81638977e+02 5.81636414e+02 5.81667847e+02 5.81693970e+02 5.81710938e+02 5.81700439e+02 5.81724304e+02 5.81712952e+02 5.81657898e+02 5.81642517e+02 5.81637573e+02 5.81666809e+02 5.81772705e+02 5.81767395e+02 5.81736938e+02 5.81662659e+02 5.81688477e+02 5.81700867e+02 5.81733459e+02 5.81712158e+02 5.81649109e+02 5.81634094e+02 5.81637695e+02 5.81646606e+02 5.81667847e+02 5.81655151e+02 5.81656006e+02 5.81667419e+02 5.81650818e+02 5.81637085e+02 5.81662476e+02 5.81647400e+02 5.81633667e+02 5.81638672e+02 5.81651855e+02 5.81681519e+02 5.81654297e+02 5.81638489e+02 5.81662170e+02 5.81709290e+02 5.81765991e+02 5.81731628e+02 5.81692078e+02 5.81667480e+02 5.81685425e+02 5.81712036e+02 5.81706665e+02 5.81673706e+02 5.81674438e+02 5.81705872e+02 5.81701111e+02 5.81677429e+02 5.81672302e+02 5.81694275e+02 5.81690918e+02 5.81686218e+02 5.81683533e+02 5.81665161e+02 5.81657471e+02 5.81661133e+02 5.81699829e+02 5.81676941e+02 5.81646545e+02 5.81638184e+02 5.81635986e+02 5.81666931e+02 5.81721008e+02 5.81760498e+02 5.81713135e+02 5.81642517e+02 5.81639648e+02 5.81685425e+02 5.81692810e+02 5.81650391e+02 5.81640015e+02 5.81644409e+02 5.81639648e+02 5.81637451e+02 5.81637695e+02 5.81636047e+02 5.81633545e+02 5.81636658e+02
    9.85726013e+02 9.85716797e+02 9.85726196e+02 9.85721680e+02 9.85755920e+02 9.85840881e+02 9.85885864e+02 9.85770996e+02 9.85712402e+02 9.85722717e+02 9.85735168e+02 9.85756165e+02 9.85736084e+02 9.85718506e+02 9.85749451e+02 9.85774780e+02 9.85734253e+02 9.85716797e+02 9.85718567e+02 9.85729492e+02 9.85754456e+02 9.85766968e+02 9.85816284e+02 9.85839661e+02 9.85789795e+02 9.85745422e+02 9.85727173e+02 9.85722046e+02 9.85720459e+02 9.85735413e+02 9.85779175e+02 9.85893494e+02 9.86053284e+02 9.86001526e+02 9.85844788e+02 9.85749817e+02 9.85771057e+02 9.85794983e+02 9.85825256e+02 9.85831482e+02 9.85857971e+02 9.85846008e+02 9.85845459e+02 9.85796387e+02 9.85743286e+02 9.85725159e+02 9.85718750e+02 9.85724976e+02 9.85721802e+02 9.85722473e+02 9.85733582e+02 9.85727844e+02 9.85730652e+02 9.85785461e+02 9.85796631e+02 9.85786438e+02 9.85789307e+02 9.85802124e+02 9.85722412e+02 9.85739319e+02 9.85937256e+02 9.86107849e+02 9.86031616e+02 9.85793396e+02 9.85717712e+02 9.85719116e+02 9.85757263e+02 9.86006531e+02 9.86177246e+02 9.86075989e+02 9.85948242e+02 9.85825806e+02 9.85820496e+02 9.85745178e+02 9.85733948e+02 9.85806274e+02 9.85752563e+02 9.85714783e+02 9.85777100e+02 9.85732727e+02 9.85722534e+02 9.85805786e+02 9.85868469e+02 9.85753052e+02 9.85723694e+02 9.85846558e+02 9.85821899e+02 9.85797363e+02 9.85837769e+02 9.85830627e+02 9.85849548e+02 9.85841125e+02 9.85803223e+02 9.85755005e+02 9.85731995e+02 9.85728821e+02 9.85735840e+02 9.85721558e+02 9.85776367e+02 9.85737671e+02 9.85751953e+02 9.85784119e+02 9.85718628e+02 9.85774658e+02 9.85797302e+02 9.85756409e+02 9.85756775e+02 9.85728088e+02 9.85721741e+02 9.85745605e+02 9.85751831e+02 9.85742981e+02 9.85728760e+02 9.85718445e+02 9.85721558e+02 9.85722473e+02 9.85721436e+02 9.85748718e+02 9.85829712e+02 9.85823853e+02 9.85764832e+02 9.85720947e+02 9.85742676e+02 9.85739258e+02 9.85747803e+02 9.85963684e+02 9.85834229e+02 9.85728577e+02 9.85746948e+02 9.85726074e+02 9.85786011e+02 9.85742859e+02 9.85732605e+02 9.85736023e+02 9.85722778e+02 9.85738464e+02 9.85739685e+02 9.85728149e+02 9.85729370e+02 9.85765808e+02 9.85726379e+02 9.85716919e+02 9.85722900e+02 9.85800232e+02 9.86178650e+02 9.85960144e+02 9.86005066e+02 9.85779358e+02 9.85870972e+02 9.85784302e+02 9.85739197e+02 9.85783752e+02 9.85958679e+02 9.86165710e+02 9.86123169e+02 9.85991089e+02 9.85900085e+02 9.85875244e+02 9.85855591e+02 9.85813293e+02 9.85813049e+02 9.85844727e+02 9.85894470e+02 9.85957764e+02 9.85967041e+02 9.85922668e+02 9.85880432e+02 9.85935852e+02 9.86090027e+02 9.85958679e+02 9.85769897e+02 9.85715271e+02 9.85717346e+02 9.85763367e+02 9.85775452e+02 9.85729492e+02 9.85708374e+02 9.85741760e+02 9.85833130e+02 9.85844971e+02 9.85807739e+02 9.85767212e+02 9.85736816e+02 9.85721191e+02 9.85722290e+02 9.85719666e+02 9.85723999e+02 9.85722046e+02 9.85766357e+02 9.85802612e+02 9.85769775e+02 9.85721375e+02 9.85716370e+02 9.85718323e+02 9.85745972e+02 9.85825317e+02 9.85777649e+02 9.85721619e+02 9.85781006e+02 9.85813293e+02 9.85788025e+02 9.85769653e+02 9.85746521e+02 9.85722473e+02 9.85733643e+02 9.85744873e+02 9.85791870e+02 9.85771545e+02 9.85769104e+02
    1.22360291e+03 1.22362305e+03 1.22361951e+03 1.22361121e+03 1.22359656e+03 1.22361975e+03 1.22361194e+03 1.22360168e+03 1.22358337e+03 1.22360120e+03 1.22359058e+03 1.22360034e+03 1.22359717e+03 1.22363062e+03 1.22382104e+03 1.22386829e+03 1.22370569e+03 1.22359094e+03 1.22360974e+03 1.22360828e+03 1.22360571e+03 1.22360132e+03 1.22361206e+03 1.22360583e+03 1.22358411e+03 1.22358789e+03 1.22359607e+03 1.22360266e+03 1.22363757e+03 1.22365295e+03 1.22367017e+03 1.22380835e+03 1.22410913e+03 1.22418323e+03 1.22389294e+03 1.22369873e+03 1.22370618e+03 1.22380725e+03 1.22383667e+03 1.22383936e+03 1.22380371e+03 1.22374780e+03 1.22376953e+03 1.22376135e+03 1.22380359e+03 1.22376282e+03 1.22371021e+03 1.22363733e+03 1.22362183e+03 1.22359375e+03 1.22360718e+03 1.22358862e+03 1.22360059e+03 1.22365308e+03 1.22362756e+03 1.22363599e+03 1.22367761e+03 1.22362048e+03 1.22365808e+03 1.22403125e+03 1.22437207e+03 1.22413342e+03 1.22391260e+03 1.22386255e+03 1.22396790e+03 1.22412915e+03 1.22409607e+03 1.22423462e+03 1.22443921e+03 1.22430298e+03 1.22401404e+03 1.22383337e+03 1.22400134e+03 1.22401233e+03 1.22388428e+03 1.22384021e+03 1.22386816e+03 1.22388818e+03 1.22391003e+03 1.22403125e+03 1.22409851e+03 1.22389453e+03 1.22374524e+03 1.22387024e+03 1.22435388e+03 1.22479297e+03 1.22459631e+03 1.22405249e+03 1.22379004e+03 1.22360986e+03 1.22360669e+03 1.22364722e+03 1.22386243e+03 1.22404126e+03 1.22424304e+03 1.22425806e+03 1.22399512e+03 1.22384607e+03 1.22369788e+03 1.22383838e+03 1.22399463e+03 1.22381555e+03 1.22360840e+03 1.22360522e+03 1.22358655e+03 1.22361108e+03 1.22363391e+03 1.22369849e+03 1.22367590e+03 1.22370520e+03 1.22368774e+03 1.22367297e+03 1.22363208e+03 1.22360486e+03 1.22360449e+03 1.22360144e+03 1.22361035e+03 1.22362939e+03 1.22367383e+03 1.22377820e+03 1.22388440e+03 1.22377783e+03 1.22369031e+03 1.22364917e+03 1.22387695e+03 1.22416370e+03 1.22377441e+03 1.22360144e+03 1.22360681e+03 1.22372278e+03 1.22402405e+03 1.22402295e+03 1.22387463e+03 1.22381250e+03 1.22377185e+03 1.22364429e+03 1.22362634e+03 1.22360999e+03 1.22363342e+03 1.22368884e+03 1.22376855e+03 1.22382410e+03 1.22362866e+03 1.22361145e+03 1.22365967e+03 1.22360010e+03 1.22358679e+03 1.22369861e+03 1.22380627e+03 1.22364612e+03 1.22359229e+03 1.22360083e+03 1.22367993e+03 1.22386780e+03 1.22379663e+03 1.22378503e+03 1.22381543e+03 1.22402502e+03 1.22389075e+03 1.22370898e+03 1.22372485e+03 1.22395532e+03 1.22426465e+03 1.22423108e+03 1.22412451e+03 1.22416687e+03 1.22436572e+03 1.22471118e+03 1.22497510e+03 1.22448059e+03 1.22393335e+03 1.22372534e+03 1.22381458e+03 1.22405151e+03 1.22395447e+03 1.22377588e+03 1.22375574e+03 1.22384656e+03 1.22400098e+03 1.22404553e+03 1.22407251e+03 1.22399512e+03 1.22382788e+03 1.22372913e+03 1.22368286e+03 1.22364050e+03 1.22365735e+03 1.22373596e+03 1.22391150e+03 1.22384058e+03 1.22373828e+03 1.22363391e+03 1.22368213e+03 1.22377527e+03 1.22370630e+03 1.22359644e+03 1.22361499e+03 1.22360095e+03 1.22359790e+03 1.22360083e+03 1.22360950e+03 1.22362317e+03 1.22359595e+03 1.22359619e+03 1.22361414e+03 1.22367505e+03 1.22374487e+03 1.22366003e+03 1.22363037e+03
    2.09927539e+03 2.09930200e+03 2.09930835e+03 2.09928369e+03 2.09942065e+03 2.09964673e+03 2.09986304e+03 2.09976343e+03 2.09952612e+03 2.09941772e+03 2.09932642e+03 2.09935791e+03 2.09938135e+03 2.09939258e+03 2.09935596e+03 2.09933911e+03 2.09934570e+03 2.09943530e+03 2.09955005e+03 2.09967480e+03 2.09965894e+03 2.09961328e+03 2.09985303e+03 2.10001245e+03 2.09987158e+03 2.09958936e+03 2.09942798e+03 2.09948975e+03 2.09954688e+03 2.09952905e+03 2.09962817e+03 2.09981079e+03 2.09997778e+03 2.09988843e+03 2.09948730e+03 2.09936353e+03 2.09943481e+03 2.09948047e+03 2.09936890e+03 2.09929980e+03 2.09931812e+03 2.09938647e+03 2.09935303e+03 2.09930908e+03 2.09936621e+03 2.09946973e+03 2.09960815e+03 2.09984204e+03 2.10003735e+03 2.09982324e+03 2.09953687e+03 2.09944922e+03 2.09936572e+03 2.09929492e+03 2.09929102e+03 2.09930542e+03 2.09928882e+03 2.09928564e+03 2.09931958e+03 2.09937085e+03 2.09952539e+03 2.09993457e+03 2.10033374e+03 2.09998120e+03 2.09953320e+03 2.09947485e+03 2.09969434e+03 2.09987915e+03 2.09972876e+03 2.09968579e+03 2.09982690e+03 2.09971484e+03 2.09940308e+03 2.09928882e+03 2.09931177e+03 2.09928711e+03 2.09929102e+03 2.09929175e+03 2.09941724e+03 2.09931006e+03 2.09930591e+03 2.09936572e+03 2.09948657e+03 2.09941968e+03 2.09934351e+03 2.09929517e+03 2.09932617e+03 2.09933032e+03 2.09929395e+03 2.09930054e+03 2.09932593e+03 2.09947876e+03 2.09935132e+03 2.09929614e+03 2.09931934e+03 2.09930469e+03 2.09944287e+03 2.09929004e+03 2.09942432e+03 2.09953442e+03 2.09931494e+03 2.09930396e+03 2.09928809e+03 2.09928687e+03 2.09929272e+03 2.09948633e+03 2.09936841e+03 2.09928833e+03 2.09929346e+03 2.09942163e+03 2.09961768e+03 2.09949463e+03 2.09930322e+03 2.09936035e+03 2.09942114e+03 2.09929712e+03 2.09935986e+03 2.09934668e+03 2.09939062e+03 2.09934961e+03 2.09934375e+03 2.09928955e+03 2.09930054e+03 2.09927856e+03 2.09937720e+03 2.09965796e+03 2.09957935e+03 2.09932617e+03 2.09931567e+03 2.09938550e+03 2.09935498e+03 2.09944897e+03 2.09972632e+03 2.10001831e+03 2.09977856e+03 2.09945142e+03 2.09937451e+03 2.09954541e+03 2.10014038e+03 2.10102100e+03 2.10030322e+03 2.09968164e+03 2.09962402e+03 2.10046973e+03 2.10109326e+03 2.10069141e+03 2.10059521e+03 2.10042822e+03 2.10076416e+03 2.10063892e+03 2.10046289e+03 2.10082739e+03 2.10118652e+03 2.10156323e+03 2.10105811e+03 2.10028442e+03 2.09996387e+03 2.09984399e+03 2.10012280e+03 2.10033862e+03 2.10041333e+03 2.10018579e+03 2.10018457e+03 2.10053296e+03 2.10066187e+03 2.10048950e+03 2.10012720e+03 2.10021851e+03 2.10038184e+03 2.09989111e+03 2.09943872e+03 2.09929712e+03 2.09935107e+03 2.09943872e+03 2.09953809e+03 2.09948291e+03 2.09952002e+03 2.09942432e+03 2.09942700e+03 2.09937207e+03 2.09930713e+03 2.09929590e+03 2.09931396e+03 2.09927173e+03 2.09928833e+03 2.09933545e+03 2.09933105e+03 2.09931323e+03 2.09932397e+03 2.09937866e+03 2.09941870e+03 2.09938330e+03 2.09941040e+03 2.09944214e+03 2.09940039e+03 2.09934033e+03 2.09951123e+03 2.10017456e+03 2.10076123e+03 2.10026562e+03 2.09957227e+03 2.09953638e+03 2.09974438e+03 2.09972461e+03 2.09946143e+03 2.09934668e+03 2.09937476e+03 2.09940039e+03 2.09940283e+03
    4.89909961e+03 4.89932715e+03 4.89930469e+03 4.89913867e+03 4.89910547e+03 4.89911377e+03 4.89924805e+03 4.89902246e+03 4.89918652e+03 4.89904102e+03 4.89912939e+03 4.89900830e+03 4.89904443e+03 4.89927393e+03 4.89999072e+03 4.90013672e+03 4.89955615e+03 4.89909619e+03 4.89913867e+03 4.89922266e+03 4.89911182e+03 4.89916553e+03 4.89921143e+03 4.89925000e+03 4.89907422e+03 4.89906885e+03 4.89905420e+03 4.89914453e+03 4.89938135e+03 4.89925977e+03 4.89937744e+03 4.89982178e+03 4.90108350e+03 4.90144043e+03 4.90038428e+03 4.89949805e+03 4.89952344e+03 4.90006641e+03 4.90020508e+03 4.90027539e+03 4.89990771e+03 4.89979834e+03 4.89971973e+03 4.89980029e+03 4.89989648e+03 4.89970459e+03 4.89966357e+03 4.89929736e+03 4.89925000e+03 4.89910547e+03 4.89922705e+03 4.89917529e+03 4.89918652e+03 4.89935107e+03 4.89932617e+03 4.89924951e+03 4.89937646e+03 4.89918994e+03 4.89931982e+03 4.90090869e+03 4.90212207e+03 4.90133691e+03 4.90031201e+03 4.90013428e+03 4.90068506e+03 4.90117969e+03 4.90112402e+03 4.90170312e+03 4.90256543e+03 4.90193115e+03 4.90077881e+03 4.89999951e+03 4.90068311e+03 4.90074365e+03 4.90035742e+03 4.90020654e+03 4.90020850e+03 4.90026318e+03 4.90042432e+03 4.90086963e+03 4.90112891e+03 4.90038281e+03 4.89980615e+03 4.90023730e+03 4.90224805e+03 4.90400635e+03 4.90316699e+03 4.90097852e+03 4.89987939e+03 4.89928125e+03 4.89926074e+03 4.89932422e+03 4.90009326e+03 4.90093457e+03 4.90169873e+03 4.90184033e+03 4.90072559e+03 4.90006592e+03 4.89957080e+03 4.90008252e+03 4.90075732e+03 4.89995947e+03 4.89912402e+03 4.89911768e+03 4.89913184e+03 4.89924219e+03 4.89935400e+03 4.89956494e+03 4.89948438e+03 4.89956445e+03 4.89938965e+03 4.89937549e+03 4.89936230e+03 4.89922607e+03 4.89915527e+03 4.89912012e+03 4.89921533e+03 4.89920166e+03 4.89940869e+03 4.89987793e+03 4.90021240e+03 4.89993555e+03 4.89947266e+03 4.89933838e+03 4.90029053e+03 4.90147168e+03 4.89989600e+03 4.89908594e+03 4.89911963e+03 4.89964648e+03 4.90091846e+03 4.90075195e+03 4.90020850e+03 4.89993896e+03 4.89975488e+03 4.89929199e+03 4.89925049e+03 4.89916846e+03 4.89928955e+03 4.89941797e+03 4.89978955e+03 4.90002344e+03 4.89925098e+03 4.89916992e+03 4.90015039e+03 4.89942529e+03 4.89958447e+03 4.89942871e+03 4.90001904e+03 4.89952539e+03 4.89909375e+03 4.89910742e+03 4.89953516e+03 4.90022949e+03 4.89993799e+03 4.89990771e+03 4.90005762e+03 4.90081055e+03 4.90033984e+03 4.89969727e+03 4.89975098e+03 4.90059424e+03 4.90171631e+03 4.90160156e+03 4.90124414e+03 4.90145654e+03 4.90222949e+03 4.90371143e+03 4.90492480e+03 4.90270508e+03 4.90043604e+03 4.89958203e+03 4.89987158e+03 4.90069238e+03 4.90037988e+03 4.89966357e+03 4.89970801e+03 4.90012256e+03 4.90077344e+03 4.90090088e+03 4.90099268e+03 4.90055420e+03 4.89994678e+03 4.89954932e+03 4.89941846e+03 4.89927100e+03 4.89945605e+03 4.89967529e+03 4.90030811e+03 4.90011963e+03 4.89957666e+03 4.89924219e+03 4.89947119e+03 4.89985010e+03 4.89958008e+03 4.89908154e+03 4.89924561e+03 4.89908252e+03 4.89912695e+03 4.89905957e+03 4.89915576e+03 4.89916895e+03 4.89908594e+03 4.89912305e+03 4.89915479e+03 4.89937305e+03 4.89964844e+03 4.89937354e+03 4.89917432e+03
    4.90291016e+03 4.90286279e+03 4.90282861e+03 4.90283594e+03 4.90304980e+03 4.90358789e+03 4.90407959e+03 4.90402002e+03 4.90345312e+03 4.90322607e+03 4.90301025e+03 4.90299170e+03 4.90312793e+03 4.90319727e+03 4.90310840e+03 4.90304492e+03 4.90300684e+03 4.90327246e+03 4.90369678e+03 4.90391016e+03 4.90384668e+03 4.90363379e+03 4.90415088e+03 4.90456934e+03 4.90416406e+03 4.90364990e+03 4.90332324e+03 4.90351709e+03 4.90350488e+03 4.90344824e+03 4.90361670e+03 4.90395410e+03 4.90410205e+03 4.90397070e+03 4.90315674e+03 4.90291992e+03 4.90316162e+03 4.90325732e+03 4.90301758e+03 4.90284668e+03 4.90280957e+03 4.90297461e+03 4.90298779e+03 4.90279492e+03 4.90304883e+03 4.90338965e+03 4.90380371e+03 4.90450000e+03 4.90500244e+03 4.90446387e+03 4.90360352e+03 4.90334424e+03 4.90310742e+03 4.90290430e+03 4.90288428e+03 4.90284131e+03 4.90282568e+03 4.90285352e+03 4.90294824e+03 4.90297607e+03 4.90313086e+03 4.90405420e+03 4.90506348e+03 4.90454639e+03 4.90356445e+03 4.90347461e+03 4.90384180e+03 4.90380957e+03 4.90340918e+03 4.90336816e+03 4.90390869e+03 4.90381689e+03 4.90313867e+03 4.90280273e+03 4.90285400e+03 4.90281445e+03 4.90287842e+03 4.90284619e+03 4.90301367e+03 4.90286230e+03 4.90283398e+03 4.90296387e+03 4.90305273e+03 4.90304932e+03 4.90306299e+03 4.90286523e+03 4.90280664e+03 4.90293604e+03 4.90289600e+03 4.90288379e+03 4.90288623e+03 4.90314307e+03 4.90290088e+03 4.90285449e+03 4.90282666e+03 4.90298779e+03 4.90319385e+03 4.90289209e+03 4.90306592e+03 4.90347803e+03 4.90295947e+03 4.90284180e+03 4.90285107e+03 4.90282910e+03 4.90297412e+03 4.90370410e+03 4.90326807e+03 4.90290771e+03 4.90284033e+03 4.90321387e+03 4.90363281e+03 4.90337793e+03 4.90279688e+03 4.90300244e+03 4.90307959e+03 4.90284521e+03 4.90298779e+03 4.90286768e+03 4.90297705e+03 4.90287988e+03 4.90296240e+03 4.90286230e+03 4.90285205e+03 4.90288721e+03 4.90315723e+03 4.90356445e+03 4.90345508e+03 4.90300195e+03 4.90293359e+03 4.90322656e+03 4.90321094e+03 4.90318848e+03 4.90328516e+03 4.90393115e+03 4.90368359e+03 4.90306494e+03 4.90289746e+03 4.90316943e+03 4.90488232e+03 4.90696777e+03 4.90542627e+03 4.90401807e+03 4.90387256e+03 4.90609863e+03 4.90709082e+03 4.90614600e+03 4.90562305e+03 4.90571680e+03 4.90655225e+03 4.90657520e+03 4.90613330e+03 4.90690576e+03 4.90737207e+03 4.90794141e+03 4.90669580e+03 4.90504980e+03 4.90417529e+03 4.90400342e+03 4.90474707e+03 4.90539355e+03 4.90556787e+03 4.90486230e+03 4.90485205e+03 4.90555762e+03 4.90559668e+03 4.90522998e+03 4.90456104e+03 4.90491504e+03 4.90517920e+03 4.90399170e+03 4.90314746e+03 4.90281494e+03 4.90296680e+03 4.90322559e+03 4.90345801e+03 4.90338770e+03 4.90346240e+03 4.90305664e+03 4.90295752e+03 4.90282568e+03 4.90289209e+03 4.90285254e+03 4.90284033e+03 4.90284229e+03 4.90284863e+03 4.90287939e+03 4.90292822e+03 4.90286035e+03 4.90284570e+03 4.90294971e+03 4.90312744e+03 4.90307910e+03 4.90336084e+03 4.90335938e+03 4.90333252e+03 4.90323486e+03 4.90382227e+03 4.90553613e+03 4.90674023e+03 4.90517871e+03 4.90342578e+03 4.90353467e+03 4.90419238e+03 4.90438818e+03 4.90336084e+03 4.90302100e+03 4.90304492e+03 4.90301318e+03 4.90309961e+03
    4.92064453e+03 4.92070020e+03 4.92064355e+03 4.92062549e+03 4.92056543e+03 4.92068750e+03 4.92065625e+03 4.92060254e+03 4.92055225e+03 4.92057959e+03 4.92058203e+03 4.92060693e+03 4.92060107e+03 4.92078564e+03 4.92150000e+03 4.92167285e+03 4.92102490e+03 4.92053613e+03 4.92068750e+03 4.92062402e+03 4.92063379e+03 4.92065723e+03 4.92067676e+03 4.92059033e+03 4.92054980e+03 4.92062207e+03 4.92056592e+03 4.92058447e+03 4.92078516e+03 4.92086182e+03 4.92093213e+03 4.92147656e+03 4.92270215e+03 4.92298438e+03 4.92186719e+03 4.92103809e+03 4.92108057e+03 4.92156201e+03 4.92167188e+03 4.92165234e+03 4.92138379e+03 4.92116553e+03 4.92122656e+03 4.92124658e+03 4.92134668e+03 4.92127930e+03 4.92108154e+03 4.92081787e+03 4.92073633e+03 4.92052246e+03 4.92059912e+03 4.92056543e+03 4.92066406e+03 4.92085156e+03 4.92071289e+03 4.92076807e+03 4.92085254e+03 4.92086426e+03 4.92063477e+03 4.92161230e+03 4.92309229e+03 4.92282129e+03 4.92175732e+03 4.92159375e+03 4.92212549e+03 4.92274512e+03 4.92262793e+03 4.92317334e+03 4.92403271e+03 4.92339014e+03 4.92232520e+03 4.92152002e+03 4.92231445e+03 4.92229785e+03 4.92188965e+03 4.92162305e+03 4.92170947e+03 4.92171631e+03 4.92185205e+03 4.92237842e+03 4.92268408e+03 4.92191162e+03 4.92117725e+03 4.92169580e+03 4.92379395e+03 4.92544775e+03 4.92449756e+03 4.92231543e+03 4.92127393e+03 4.92066748e+03 4.92061523e+03 4.92075195e+03 4.92156104e+03 4.92227295e+03 4.92310205e+03 4.92321094e+03 4.92213818e+03 4.92160400e+03 4.92109375e+03 4.92164014e+03 4.92218457e+03 4.92143408e+03 4.92061816e+03 4.92057666e+03 4.92056738e+03 4.92068994e+03 4.92077197e+03 4.92093555e+03 4.92097314e+03 4.92102783e+03 4.92099365e+03 4.92090088e+03 4.92069385e+03 4.92062256e+03 4.92063135e+03 4.92060938e+03 4.92062646e+03 4.92072900e+03 4.92093408e+03 4.92138135e+03 4.92174023e+03 4.92139600e+03 4.92098926e+03 4.92077295e+03 4.92167627e+03 4.92291846e+03 4.92118506e+03 4.92053369e+03 4.92063477e+03 4.92116699e+03 4.92239990e+03 4.92224561e+03 4.92166064e+03 4.92143604e+03 4.92128418e+03 4.92079297e+03 4.92069336e+03 4.92063916e+03 4.92079248e+03 4.92098779e+03 4.92129980e+03 4.92151367e+03 4.92068066e+03 4.92067139e+03 4.92083203e+03 4.92062549e+03 4.92060791e+03 4.92091357e+03 4.92147217e+03 4.92097363e+03 4.92061426e+03 4.92059082e+03 4.92100732e+03 4.92169629e+03 4.92141699e+03 4.92141504e+03 4.92142383e+03 4.92227246e+03 4.92186670e+03 4.92109521e+03 4.92110547e+03 4.92207031e+03 4.92326514e+03 4.92319531e+03 4.92261816e+03 4.92280615e+03 4.92365967e+03 4.92521387e+03 4.92625684e+03 4.92433105e+03 4.92201953e+03 4.92101270e+03 4.92134473e+03 4.92220312e+03 4.92191650e+03 4.92125439e+03 4.92115479e+03 4.92154199e+03 4.92216699e+03 4.92245264e+03 4.92253418e+03 4.92217285e+03 4.92147656e+03 4.92112256e+03 4.92091504e+03 4.92080664e+03 4.92083984e+03 4.92114209e+03 4.92174072e+03 4.92159180e+03 4.92115820e+03 4.92070703e+03 4.92092334e+03 4.92127783e+03 4.92103564e+03 4.92056006e+03 4.92063330e+03 4.92062402e+03 4.92058984e+03 4.92056934e+03 4.92066553e+03 4.92068311e+03 4.92058301e+03 4.92052686e+03 4.92062744e+03 4.92082715e+03 4.92117725e+03 4.92084180e+03 4.92078076e+03
    4.90870752e+03 4.90864209e+03 4.90868066e+03 4.90867383e+03 4.90890234e+03 4.90945508e+03 4.90998779e+03 4.90997168e+03 4.90941357e+03 4.90905322e+03 4.90873975e+03 4.90871045e+03 4.90884814e+03 4.90899023e+03 4.90894238e+03 4.90884424e+03 4.90882568e+03 4.90910645e+03 4.90947021e+03 4.90967725e+03 4.90958301e+03 4.90950830e+03 4.90998877e+03 4.91039746e+03 4.91004150e+03 4.90948828e+03 4.90916211e+03 4.90931396e+03 4.90932617e+03 4.90933203e+03 4.90950293e+03 4.90975244e+03 4.90995361e+03 4.90979053e+03 4.90909229e+03 4.90890771e+03 4.90910059e+03 4.90909570e+03 4.90880469e+03 4.90865576e+03 4.90868311e+03 4.90879053e+03 4.90880859e+03 4.90865918e+03 4.90887061e+03 4.90934424e+03 4.90990283e+03 4.91043115e+03 4.91088623e+03 4.91015625e+03 4.90917041e+03 4.90898633e+03 4.90889600e+03 4.90879688e+03 4.90871875e+03 4.90873242e+03 4.90868262e+03 4.90868311e+03 4.90870605e+03 4.90882275e+03 4.90910303e+03 4.91032520e+03 4.91190088e+03 4.91145264e+03 4.91027441e+03 4.90978857e+03 4.91015771e+03 4.90978076e+03 4.90919092e+03 4.90917725e+03 4.90978369e+03 4.90957861e+03 4.90888330e+03 4.90870801e+03 4.90865625e+03 4.90875684e+03 4.90889990e+03 4.90905762e+03 4.90922559e+03 4.90876172e+03 4.90864453e+03 4.90875586e+03 4.90883447e+03 4.90875049e+03 4.90883594e+03 4.90867285e+03 4.90868066e+03 4.90877295e+03 4.90861963e+03 4.90865332e+03 4.90867480e+03 4.90898535e+03 4.90867383e+03 4.90865479e+03 4.90869482e+03 4.90880469e+03 4.90900586e+03 4.90870166e+03 4.90888135e+03 4.90930176e+03 4.90879492e+03 4.90872363e+03 4.90872852e+03 4.90864062e+03 4.90884424e+03 4.90945312e+03 4.90901514e+03 4.90869141e+03 4.90860010e+03 4.90901318e+03 4.90944824e+03 4.90916309e+03 4.90865674e+03 4.90870801e+03 4.90872900e+03 4.90877539e+03 4.90896680e+03 4.90875635e+03 4.90879102e+03 4.90880859e+03 4.90876562e+03 4.90864307e+03 4.90869678e+03 4.90876514e+03 4.90897266e+03 4.90941699e+03 4.90919385e+03 4.90870508e+03 4.90876758e+03 4.90916748e+03 4.90896533e+03 4.90899658e+03 4.90917676e+03 4.90982959e+03 4.90955029e+03 4.90898291e+03 4.90871582e+03 4.90904590e+03 4.91064404e+03 4.91260547e+03 4.91088965e+03 4.90948535e+03 4.90937061e+03 4.91154932e+03 4.91317480e+03 4.91189990e+03 4.91130469e+03 4.91115674e+03 4.91202588e+03 4.91227686e+03 4.91193115e+03 4.91288037e+03 4.91324463e+03 4.91384766e+03 4.91278711e+03 4.91126172e+03 4.91036182e+03 4.90997217e+03 4.91068799e+03 4.91134375e+03 4.91156396e+03 4.91086523e+03 4.91069531e+03 4.91147949e+03 4.91155762e+03 4.91104932e+03 4.91041504e+03 4.91075098e+03 4.91111279e+03 4.90992432e+03 4.90899316e+03 4.90871191e+03 4.90878760e+03 4.90908984e+03 4.90933057e+03 4.90927441e+03 4.90925293e+03 4.90888428e+03 4.90879980e+03 4.90874609e+03 4.90871094e+03 4.90867188e+03 4.90869434e+03 4.90863965e+03 4.90865869e+03 4.90872412e+03 4.90877881e+03 4.90875586e+03 4.90869824e+03 4.90875537e+03 4.90893359e+03 4.90896875e+03 4.90915869e+03 4.90918750e+03 4.90923535e+03 4.90905273e+03 4.90963037e+03 4.91136670e+03 4.91258105e+03 4.91105811e+03 4.90929297e+03 4.90930908e+03 4.91003125e+03 4.91017432e+03 4.90919189e+03 4.90876025e+03 4.90879834e+03 4.90885010e+03 4.90890869e+03
    4.91134863e+03 4.91144775e+03 4.91141260e+03 4.91140527e+03 4.91134521e+03 4.91145264e+03 4.91147119e+03 4.91138770e+03 4.91132080e+03 4.91136768e+03 4.91135205e+03 4.91137109e+03 4.91135498e+03 4.91150732e+03 4.91221729e+03 4.91238281e+03 4.91179248e+03 4.91137207e+03 4.91141748e+03 4.91139600e+03 4.91139600e+03 4.91135742e+03 4.91138770e+03 4.91139111e+03 4.91131445e+03 4.91134912e+03 4.91137695e+03 4.91137939e+03 4.91151416e+03 4.91159912e+03 4.91171387e+03 4.91225391e+03 4.91347021e+03 4.91372559e+03 4.91258643e+03 4.91181885e+03 4.91182764e+03 4.91217578e+03 4.91232666e+03 4.91230518e+03 4.91211768e+03 4.91195605e+03 4.91206299e+03 4.91196680e+03 4.91206787e+03 4.91200244e+03 4.91180957e+03 4.91153955e+03 4.91144824e+03 4.91136377e+03 4.91140869e+03 4.91140137e+03 4.91142578e+03 4.91164160e+03 4.91149512e+03 4.91152002e+03 4.91158594e+03 4.91154199e+03 4.91134570e+03 4.91229736e+03 4.91385840e+03 4.91348389e+03 4.91247119e+03 4.91233496e+03 4.91285156e+03 4.91348828e+03 4.91332568e+03 4.91398291e+03 4.91475000e+03 4.91419482e+03 4.91301660e+03 4.91227295e+03 4.91307031e+03 4.91306885e+03 4.91264795e+03 4.91239258e+03 4.91250391e+03 4.91256006e+03 4.91271387e+03 4.91314795e+03 4.91342578e+03 4.91263965e+03 4.91201416e+03 4.91245850e+03 4.91453320e+03 4.91617627e+03 4.91521680e+03 4.91311865e+03 4.91199023e+03 4.91140283e+03 4.91134912e+03 4.91148682e+03 4.91232080e+03 4.91305615e+03 4.91385010e+03 4.91390674e+03 4.91294385e+03 4.91250830e+03 4.91195898e+03 4.91249365e+03 4.91294189e+03 4.91223584e+03 4.91143604e+03 4.91142969e+03 4.91135059e+03 4.91146875e+03 4.91151660e+03 4.91176465e+03 4.91171924e+03 4.91181250e+03 4.91172900e+03 4.91162744e+03 4.91154541e+03 4.91141748e+03 4.91137793e+03 4.91137451e+03 4.91136963e+03 4.91151611e+03 4.91165967e+03 4.91211084e+03 4.91245557e+03 4.91211279e+03 4.91173975e+03 4.91157178e+03 4.91243750e+03 4.91358203e+03 4.91206445e+03 4.91136426e+03 4.91141748e+03 4.91189307e+03 4.91311963e+03 4.91300586e+03 4.91240771e+03 4.91222363e+03 4.91209766e+03 4.91153662e+03 4.91150000e+03 4.91137598e+03 4.91154785e+03 4.91174121e+03 4.91201465e+03 4.91229736e+03 4.91149854e+03 4.91142529e+03 4.91142920e+03 4.91133887e+03 4.91135107e+03 4.91163281e+03 4.91222754e+03 4.91163281e+03 4.91135938e+03 4.91135352e+03 4.91168262e+03 4.91247412e+03 4.91213428e+03 4.91215479e+03 4.91221240e+03 4.91303174e+03 4.91256104e+03 4.91189111e+03 4.91195557e+03 4.91280713e+03 4.91401465e+03 4914. 4.91348047e+03 4.91365137e+03 4.91443213e+03 4.91582715e+03 4.91684424e+03 4.91492627e+03 4.91265967e+03 4.91185010e+03 4.91213574e+03 4.91308350e+03 4.91278223e+03 4.91207617e+03 4.91200830e+03 4.91238770e+03 4.91298877e+03 4.91320166e+03 4.91327441e+03 4.91295020e+03 4.91227197e+03 4.91188428e+03 4.91172168e+03 4.91158252e+03 4.91165283e+03 4.91191016e+03 4.91257666e+03 4.91233691e+03 4.91186914e+03 4.91147461e+03 4.91170703e+03 4.91208789e+03 4.91179346e+03 4.91133496e+03 4.91146436e+03 4.91141064e+03 4.91134033e+03 4.91132910e+03 4.91139258e+03 4.91143457e+03 4.91134375e+03 4.91138525e+03 4.91141699e+03 4.91165674e+03 4.91195312e+03 4.91162744e+03 4.91147461e+03
    4.92825342e+03 4.92818652e+03 4.92815137e+03 4.92814111e+03 4.92840527e+03 4.92888086e+03 4.92934619e+03 4.92937744e+03 4.92892920e+03 4.92858154e+03 4.92823975e+03 4.92824902e+03 4.92835498e+03 4.92853369e+03 4.92845166e+03 4.92835693e+03 4.92837842e+03 4.92857715e+03 4.92893994e+03 4.92916113e+03 4.92908301e+03 4.92896045e+03 4.92946143e+03 4.92978369e+03 4.92942920e+03 4.92894189e+03 4.92866797e+03 4.92879443e+03 4.92880957e+03 4.92883936e+03 4.92896387e+03 4.92929199e+03 4.92940820e+03 4.92930078e+03 4.92856836e+03 4.92838379e+03 4.92864160e+03 4.92863916e+03 4.92828369e+03 4.92814990e+03 4.92820996e+03 4.92832373e+03 4.92830127e+03 4.92815967e+03 4.92837012e+03 4.92888232e+03 4.92934912e+03 4.92994727e+03 4.93038867e+03 4.92957227e+03 4.92863281e+03 4.92839990e+03 4.92833936e+03 4.92829199e+03 4.92816309e+03 4.92820801e+03 4.92819092e+03 4.92815381e+03 4.92824121e+03 4.92829248e+03 4.92858350e+03 4.92979736e+03 4.93142383e+03 4.93107666e+03 4.92982715e+03 4.92930371e+03 4.92963428e+03 4.92920898e+03 4.92864111e+03 4.92863770e+03 4.92921826e+03 4.92912646e+03 4.92835352e+03 4.92817285e+03 4.92821387e+03 4.92818506e+03 4.92839795e+03 4.92856055e+03 4.92876807e+03 4.92830566e+03 4.92817627e+03 4.92818652e+03 4.92816016e+03 4.92821338e+03 4.92825244e+03 4.92820068e+03 4.92820898e+03 4.92824854e+03 4.92817725e+03 4.92814795e+03 4.92822070e+03 4.92847705e+03 4.92824121e+03 4.92817676e+03 4.92817871e+03 4.92827539e+03 4.92846875e+03 4.92817529e+03 4.92842188e+03 4.92880322e+03 4.92828516e+03 4.92818164e+03 4.92816064e+03 4.92817871e+03 4.92827979e+03 4.92897266e+03 4.92858838e+03 4.92825879e+03 4.92817334e+03 4.92852344e+03 4.92896631e+03 4.92865967e+03 4.92817773e+03 4.92822217e+03 4.92819434e+03 4.92821680e+03 4.92841650e+03 4.92820459e+03 4.92826123e+03 4.92822900e+03 4.92824756e+03 4.92820850e+03 4.92818164e+03 4.92819580e+03 4.92819873e+03 4.92861035e+03 4.92871533e+03 4.92822998e+03 4.92829248e+03 4.92868311e+03 4.92849561e+03 4.92862695e+03 4.92888574e+03 4.92977393e+03 4.93000195e+03 4.92938916e+03 4.92877832e+03 4.92905225e+03 4.93040039e+03 4.93244824e+03 4.93051221e+03 4.92892969e+03 4.92882031e+03 4.93063184e+03 4.93211816e+03 4.93111768e+03 4.93077344e+03 4.93058350e+03 4.93153809e+03 4.93184863e+03 4.93150049e+03 4.93232227e+03 4.93287939e+03 4.93349902e+03 4.93245117e+03 4.93076465e+03 4.92985938e+03 4.92945703e+03 4.93016504e+03 4.93097900e+03 4.93123145e+03 4.93043555e+03 4.93034863e+03 4.93144434e+03 4.93193506e+03 4.93142236e+03 4.93031738e+03 4.93030518e+03 4.93057080e+03 4.92958008e+03 4.92856250e+03 4.92829102e+03 4.92839502e+03 4.92857031e+03 4.92885254e+03 4.92877393e+03 4.92881201e+03 4.92845068e+03 4.92833643e+03 4.92822559e+03 4.92816553e+03 4.92812646e+03 4.92816699e+03 4.92818311e+03 4.92819385e+03 4.92827051e+03 4.92832373e+03 4.92823828e+03 4.92823438e+03 4.92826221e+03 4.92837012e+03 4.92836133e+03 4.92858594e+03 4.92869678e+03 4.92868604e+03 4.92860352e+03 4.92912939e+03 4.93089258e+03 4.93208984e+03 4.93048096e+03 4.92875293e+03 4.92880566e+03 4.92948975e+03 4.92956348e+03 4.92868018e+03 4.92832568e+03 4.92834424e+03 4.92836328e+03 4.92846094e+03
    4.91519238e+03 4.91532666e+03 4.91522510e+03 4.91513965e+03 4.91510010e+03 4.91516309e+03 4.91516016e+03 4.91507422e+03 4.91509521e+03 4.91511768e+03 4.91508154e+03 4.91507617e+03 4.91509326e+03 4.91525146e+03 4.91597266e+03 4.91614209e+03 4.91556445e+03 4.91509180e+03 4.91511670e+03 4.91514893e+03 4.91515430e+03 4.91509961e+03 4.91511719e+03 4.91510498e+03 4.91507471e+03 4.91508545e+03 4.91507275e+03 4.91512451e+03 4.91530762e+03 4.91532910e+03 4.91543115e+03 4.91595703e+03 4.91716797e+03 4.91747656e+03 4.91634570e+03 4.91552393e+03 4.91551416e+03 4.91593750e+03 4.91606543e+03 4.91606494e+03 4.91589990e+03 4.91568457e+03 4.91575342e+03 4.91572949e+03 4.91584180e+03 4.91574219e+03 4.91554590e+03 4.91528711e+03 4.91517432e+03 4.91508643e+03 4.91515918e+03 4.91506934e+03 4.91513428e+03 4.91532959e+03 4.91518506e+03 4.91520508e+03 4.91532275e+03 4.91519922e+03 4.91522119e+03 4.91655566e+03 4.91800977e+03 4.91726611e+03 4.91624463e+03 4.91606348e+03 4.91657861e+03 4.91722266e+03 4.91710742e+03 4.91769434e+03 4.91851416e+03 4.91797754e+03 4.91682275e+03 4.91601855e+03 4.91677979e+03 4.91684033e+03 4.91635254e+03 4.91612354e+03 4.91625488e+03 4.91626318e+03 4.91644531e+03 4.91686719e+03 4.91714648e+03 4.91636084e+03 4.91569189e+03 4.91619873e+03 4.91822705e+03 4.92008105e+03 4.91909766e+03 4.91689648e+03 4.91571631e+03 4.91511816e+03 4.91511719e+03 4.91522510e+03 4.91607666e+03 4.91679102e+03 4.91760010e+03 4.91763037e+03 4.91666748e+03 4.91618115e+03 4.91562695e+03 4.91615186e+03 4.91669287e+03 4.91594092e+03 4.91511963e+03 4.91512451e+03 4.91508545e+03 4.91517334e+03 4.91526025e+03 4.91550293e+03 4.91541748e+03 4.91551953e+03 4.91544141e+03 4.91536426e+03 4.91524951e+03 4.91514893e+03 4.91509766e+03 4.91510303e+03 4.91511621e+03 4.91523633e+03 4.91539014e+03 4.91581250e+03 4.91619727e+03 4.91583105e+03 4.91542920e+03 4.91528027e+03 4.91613037e+03 4.91736084e+03 4.91577979e+03 4.91507617e+03 4.91513330e+03 4.91563672e+03 4.91687793e+03 4.91686914e+03 4.91623340e+03 4.91604150e+03 4.91581836e+03 4.91527197e+03 4.91520166e+03 4.91512207e+03 4.91525586e+03 4.91544092e+03 4.91578369e+03 4.91600732e+03 4.91520703e+03 4.91527393e+03 4.91541748e+03 4.91513330e+03 4.91509717e+03 4.91536084e+03 4.91596533e+03 4.91537354e+03 4.91508545e+03 4.91506738e+03 4.91541064e+03 4.91621484e+03 4.91591602e+03 4.91592041e+03 4.91599170e+03 4.91679443e+03 4.91632764e+03 4.91560156e+03 4.91566357e+03 4.91654785e+03 4.91773242e+03 4.91769043e+03 4.91717676e+03 4.91741943e+03 4.91807617e+03 4.91950391e+03 4.92060107e+03 4.91870752e+03 4.91648047e+03 4.91558643e+03 4.91586279e+03 4.91682080e+03 4.91647900e+03 4.91579736e+03 4.91572266e+03 4.91609082e+03 4.91672949e+03 4.91690918e+03 4.91697461e+03 4.91666016e+03 4.91600781e+03 4.91563525e+03 4.91541406e+03 4.91527734e+03 4.91532861e+03 4.91566504e+03 4.91630078e+03 4.91611621e+03 4.91561670e+03 4.91519482e+03 4.91543262e+03 4.91578076e+03 4.91552393e+03 4.91507275e+03 4.91516016e+03 4.91510205e+03 4.91508691e+03 4.91508203e+03 4.91513477e+03 4.91518994e+03 4.91509082e+03 4.91508984e+03 4.91514453e+03 4.91540771e+03 4.91566064e+03 4.91533105e+03 4.91522705e+03
    4.91675586e+03 4.91670215e+03 4.91669775e+03 4.91668799e+03 4.91690039e+03 4.91735352e+03 4.91793213e+03 4.91801953e+03 4.91750342e+03 4.91717285e+03 4.91681787e+03 4.91683301e+03 4.91691260e+03 4.91697559e+03 4.91689111e+03 4.91680957e+03 4.91685693e+03 4.91719189e+03 4.91769385e+03 4.91786621e+03 4.91771729e+03 4.91749609e+03 4.91799219e+03 4.91831689e+03 4.91798047e+03 4.91745264e+03 4.91717236e+03 4.91731689e+03 4.91737207e+03 4.91732959e+03 4.91749023e+03 4.91782178e+03 4.91799658e+03 4.91782373e+03 4.91724268e+03 4.91713623e+03 4.91742822e+03 4.91729248e+03 4.91684814e+03 4.91669580e+03 4.91670557e+03 4.91684863e+03 4.91680957e+03 4.91674072e+03 4.91737598e+03 4.91796680e+03 4.91804736e+03 4.91833447e+03 4.91885352e+03 4.91821582e+03 4.91728760e+03 4.91704248e+03 4.91694141e+03 4.91680908e+03 4.91670020e+03 4.91669873e+03 4.91669287e+03 4.91669678e+03 4.91684424e+03 4.91697119e+03 4.91731299e+03 4.91830811e+03 4.91928809e+03 4.91877734e+03 4.91784277e+03 4.91758887e+03 4.91797656e+03 4.91767725e+03 4.91720215e+03 4.91716602e+03 4.91773877e+03 4.91766602e+03 4.91687891e+03 4.91670215e+03 4.91671387e+03 4.91669629e+03 4.91672412e+03 4.91681934e+03 4.91709033e+03 4.91679785e+03 4.91671387e+03 4.91673877e+03 4.91675684e+03 4.91673535e+03 4.91679443e+03 4.91670850e+03 4.91672803e+03 4.91675244e+03 4.91668213e+03 4.91667871e+03 4.91673438e+03 4.91700781e+03 4.91675049e+03 4.91669141e+03 4.91668604e+03 4.91680273e+03 4.91702100e+03 4.91670996e+03 4.91689062e+03 4.91728467e+03 4.91682861e+03 4.91669678e+03 4.91668652e+03 4.91669971e+03 4.91679932e+03 4.91757666e+03 4.91714502e+03 4.91678711e+03 4.91670459e+03 4.91705078e+03 4.91747168e+03 4.91717676e+03 4.91670264e+03 4.91685303e+03 4.91690332e+03 4.91669385e+03 4.91686230e+03 4.91676465e+03 4.91681104e+03 4.91676953e+03 4.91676807e+03 4.91670605e+03 4.91671240e+03 4.91671240e+03 4.91674805e+03 4.91714941e+03 4.91719189e+03 4.91674219e+03 4.91678760e+03 4.91708691e+03 4.91696338e+03 4.91710693e+03 4.91742285e+03 4.91830420e+03 4.91849512e+03 4.91794043e+03 4.91731104e+03 4.91759521e+03 4.91893066e+03 4.92095264e+03 4.91917676e+03 4.91766260e+03 4.91749316e+03 4.91927490e+03 4.91984668e+03 4.91904492e+03 4.91901270e+03 4.91945508e+03 4.92032324e+03 4.92036084e+03 4.91996484e+03 4.92091211e+03 4.92148975e+03 4.92205859e+03 4.92083838e+03 4.91917529e+03 4.91829883e+03 4.91793750e+03 4.91861768e+03 4.91931592e+03 4.91968164e+03 4.91893359e+03 4.91880225e+03 4.91993555e+03 4.92044043e+03 4.91992383e+03 4.91884229e+03 4.91879102e+03 4.91905225e+03 4.91804395e+03 4.91709863e+03 4.91681738e+03 4.91691455e+03 4.91711621e+03 4.91738477e+03 4.91729102e+03 4.91725537e+03 4.91684863e+03 4.91676855e+03 4.91672266e+03 4.91670020e+03 4.91669824e+03 4.91669531e+03 4.91670361e+03 4.91669727e+03 4.91678223e+03 4.91684668e+03 4.91680322e+03 4.91675195e+03 4.91672461e+03 4.91677002e+03 4.91684814e+03 4.91710254e+03 4.91722412e+03 4.91718213e+03 4.91709912e+03 4.91761328e+03 4.91942432e+03 4.92059766e+03 4.91905176e+03 4.91732861e+03 4.91735059e+03 4.91798145e+03 4.91808545e+03 4.91718457e+03 4.91681934e+03 4.91682178e+03 4.91685254e+03 4.91691895e+03
    4.93265381e+03 4.93278711e+03 4.93270215e+03 4.93262158e+03 4.93258496e+03 4.93265723e+03 4.93268555e+03 4.93258154e+03 4.93256348e+03 4.93258496e+03 4.93256055e+03 4.93255273e+03 4.93255078e+03 4.93271338e+03 4.93342627e+03 4.93364453e+03 4.93303857e+03 4.93255566e+03 4.93259375e+03 4.93260938e+03 4.93261133e+03 4.93258643e+03 4.93259912e+03 4.93258057e+03 4.93256299e+03 4.93257471e+03 4.93256885e+03 4.93261133e+03 4.93276221e+03 4.93279297e+03 4.93287109e+03 4.93343604e+03 4.93463477e+03 4.93493604e+03 4.93379297e+03 4.93300928e+03 4.93303760e+03 4.93349561e+03 4.93364502e+03 4.93363574e+03 4.93343213e+03 4.93316064e+03 4.93323682e+03 4.93320654e+03 4.93329834e+03 4.93324121e+03 4.93306787e+03 4.93279541e+03 4.93267627e+03 4.93255127e+03 4.93262354e+03 4.93257080e+03 4.93261719e+03 4.93283350e+03 4.93269482e+03 4.93268848e+03 4.93282568e+03 4.93268066e+03 4.93268018e+03 4.93402393e+03 4.93546387e+03 4.93476807e+03 4.93374854e+03 4.93361621e+03 4.93408350e+03 4.93469971e+03 4.93454785e+03 4.93512109e+03 4.93586182e+03 4.93534424e+03 4.93422998e+03 4.93350146e+03 4.93428955e+03 4.93432080e+03 4.93385205e+03 4.93361572e+03 4.93368213e+03 4.93371777e+03 4.93385156e+03 4.93434424e+03 4.93462939e+03 4.93384424e+03 4.93321143e+03 4.93370264e+03 4.93571338e+03 4.93759375e+03 4.93660352e+03 4.93441553e+03 4.93333154e+03 4.93268896e+03 4.93265527e+03 4.93274658e+03 4.93353760e+03 4.93425244e+03 4.93503125e+03 4.93517285e+03 4.93416211e+03 4.93364014e+03 4.93306104e+03 4.93360449e+03 4.93414941e+03 4.93340869e+03 4.93261328e+03 4.93260498e+03 4.93256641e+03 4.93266455e+03 4.93275830e+03 4.93299756e+03 4.93291064e+03 4.93300244e+03 4.93293750e+03 4.93285742e+03 4.93273486e+03 4.93261914e+03 4.93257959e+03 4.93256641e+03 4.93257520e+03 4.93270996e+03 4.93286035e+03 4.93330615e+03 4.93369336e+03 4.93333350e+03 4.93296289e+03 4.93278857e+03 4.93363623e+03 4.93486182e+03 4.93327881e+03 4.93256299e+03 4.93259131e+03 4.93311279e+03 4.93435547e+03 4.93433740e+03 4.93370850e+03 4.93345947e+03 4.93327295e+03 4.93273291e+03 4.93267480e+03 4.93258789e+03 4.93271240e+03 4.93290820e+03 4.93323242e+03 4.93347754e+03 4.93269482e+03 4.93300293e+03 4.93290332e+03 4.93258887e+03 4.93261768e+03 4.93288428e+03 4.93347510e+03 4.93285059e+03 4.93255176e+03 4.93256689e+03 4.93289404e+03 4.93370410e+03 4.93340039e+03 4.93341797e+03 4.93356396e+03 4.93454883e+03 4.93404834e+03 4.93319385e+03 4.93314844e+03 4.93404102e+03 4.93525391e+03 4.93514600e+03 4.93464551e+03 4.93482764e+03 4.93561621e+03 4.93714844e+03 4.93824707e+03 4.93615771e+03 4.93388232e+03 4.93300879e+03 4.93335400e+03 4.93428076e+03 4.93391406e+03 4.93324854e+03 4.93317920e+03 4.93359424e+03 4.93422070e+03 4.93439160e+03 4.93444824e+03 4.93412695e+03 4.93348096e+03 4.93306055e+03 4.93286963e+03 4.93274805e+03 4.93281982e+03 4.93314941e+03 4.93378027e+03 4.93356738e+03 4.93307959e+03 4.93269336e+03 4.93291602e+03 4.93329053e+03 4.93300439e+03 4.93256885e+03 4.93264355e+03 4.93258984e+03 4.93256738e+03 4.93256299e+03 4.93261914e+03 4.93264893e+03 4.93257422e+03 4.93255859e+03 4.93264355e+03 4.93286475e+03 4.93315186e+03 4.93280762e+03 4.93269531e+03
    4.91870166e+03 4.91867969e+03 4.91867383e+03 4.91866357e+03 4.91879639e+03 4.91904199e+03 4.91953467e+03 4.91991309e+03 4.91961084e+03 4.91919141e+03 4.91877539e+03 4.91879688e+03 4.91887354e+03 4.91893945e+03 4.91884814e+03 4.91878516e+03 4.91883057e+03 4.91914453e+03 4.91965430e+03 4.91975732e+03 4.91967969e+03 4.91947266e+03 4.92002393e+03 4.92040088e+03 4.92007129e+03 4.91943408e+03 4.91911670e+03 4.91925391e+03 4.91935986e+03 4.91931738e+03 4.91945850e+03 4.91976416e+03 4.91998877e+03 4.91982910e+03 4.91923633e+03 4.91909326e+03 4.91940771e+03 4.91927734e+03 4.91880566e+03 4.91865820e+03 4.91866797e+03 4.91881445e+03 4.91876270e+03 4.91871094e+03 4.91940381e+03 4.91995850e+03 4.92001660e+03 4.92030566e+03 4.92087646e+03 4.92011963e+03 4.91910986e+03 4.91888477e+03 4.91885840e+03 4.91877686e+03 4.91866016e+03 4.91866992e+03 4.91865381e+03 4.91866553e+03 4.91879785e+03 4.91891162e+03 4.91925537e+03 4.92020996e+03 4.92113428e+03 4.92070557e+03 4.91979395e+03 4.91952832e+03 4.91995996e+03 4.91981006e+03 4.91937793e+03 4.91928369e+03 4.91978857e+03 4.91960840e+03 4.91876807e+03 4.91869824e+03 4.91877539e+03 4.91866650e+03 4.91873438e+03 4.91880664e+03 4.91905469e+03 4.91893506e+03 4.91892432e+03 4.91868408e+03 4.91868115e+03 4.91877344e+03 4.91880713e+03 4.91866016e+03 4.91868701e+03 4.91871240e+03 4.91866748e+03 4.91866406e+03 4.91872021e+03 4.91900098e+03 4.91869580e+03 4.91866357e+03 4.91865869e+03 4.91876855e+03 4.91900635e+03 4.91868213e+03 4.91886377e+03 4.91926611e+03 4.91880713e+03 4.91866162e+03 4.91872021e+03 4.91871729e+03 4.91871631e+03 4.91959521e+03 4.91905713e+03 4.91869043e+03 4.91865674e+03 4.91891162e+03 4.91942822e+03 4.91913525e+03 4.91866357e+03 4.91880762e+03 4.91884033e+03 4.91866064e+03 4.91886621e+03 4.91874072e+03 4.91876758e+03 4.91872754e+03 4.91874561e+03 4.91867090e+03 4.91866016e+03 4.91867139e+03 4.91885449e+03 4.91930225e+03 4.91913721e+03 4.91868848e+03 4.91880029e+03 4.91914258e+03 4.91896094e+03 4.91903076e+03 4.91923535e+03 4.91985547e+03 4.91989258e+03 4.91945850e+03 4.91908105e+03 4.91943018e+03 4.92062354e+03 4.92252393e+03 4.92097705e+03 4.91960889e+03 4.91949951e+03 4.92167627e+03 4.92126611e+03 4.92039355e+03 4.91996143e+03 4.92130859e+03 4.92222412e+03 4.92235352e+03 4.92193018e+03 4.92290430e+03 4.92353320e+03 4.92412549e+03 4.92286230e+03 4.92117090e+03 4.92028857e+03 4.91992188e+03 4.92056885e+03 4.92121436e+03 4.92140430e+03 4.92072412e+03 4.92067773e+03 4.92200342e+03 4.92261719e+03 4.92207422e+03 4.92086182e+03 4.92079102e+03 4.92104102e+03 4.92013037e+03 4.91912939e+03 4.91883301e+03 4.91888721e+03 4.91905176e+03 4.91932129e+03 4.91928174e+03 4.91908643e+03 4.91870312e+03 4.91866162e+03 4.91866162e+03 4.91867188e+03 4.91865967e+03 4.91866797e+03 4.91865674e+03 4.91867041e+03 4.91874023e+03 4.91880957e+03 4.91874805e+03 4.91870215e+03 4.91868945e+03 4.91874316e+03 4.91882715e+03 4.91911035e+03 4.91926367e+03 4.91925000e+03 4.91912109e+03 4.91959473e+03 4.92138086e+03 4.92256592e+03 4.92101270e+03 4.91927393e+03 4.91941797e+03 4.92029199e+03 4.92040967e+03 4.91925098e+03 4.91877930e+03 4.91880469e+03 4.91882910e+03 4.91885986e+03
    4.91926074e+03 4.91936328e+03 4.91933350e+03 4.91927197e+03 4.91923682e+03 4.91930078e+03 4.91932568e+03 4.91924121e+03 4.91922559e+03 4.91924609e+03 4.91921973e+03 4.91921875e+03 4.91922363e+03 4.91937305e+03 4.92007617e+03 4.92028760e+03 4.91966602e+03 4.91922510e+03 4.91926758e+03 4.91926953e+03 4.91927783e+03 4.91926465e+03 4.91927197e+03 4.91924707e+03 4.91922070e+03 4.91922461e+03 4.91921973e+03 4.91925000e+03 4.91940625e+03 4.91944824e+03 4.91954346e+03 4.92009521e+03 4.92129932e+03 4.92160791e+03 4.92046875e+03 4.91966846e+03 4.91971094e+03 4.92014697e+03 4.92028027e+03 4.92021338e+03 4.92004199e+03 4.91984521e+03 4.91991309e+03 4.91990918e+03 4.92000635e+03 4.91995801e+03 4.91974756e+03 4.91945459e+03 4.91933350e+03 4.91921973e+03 4.91929004e+03 4.91923242e+03 4.91926660e+03 4.91950195e+03 4.91937012e+03 4.91939014e+03 4.91953418e+03 4.91940479e+03 4.91928076e+03 4.92047412e+03 4.92195508e+03 4.92145312e+03 4.92041992e+03 4.92026807e+03 4.92074072e+03 4.92136377e+03 4.92120801e+03 4.92176172e+03 4.92248779e+03 4.92197949e+03 4.92087891e+03 4.92014209e+03 4.92090430e+03 4.92096387e+03 4.92051611e+03 4.92026953e+03 4.92034717e+03 4.92039160e+03 4.92052197e+03 4.92100146e+03 4.92128516e+03 4.92049512e+03 4.91986035e+03 4.92035889e+03 4.92237500e+03 4.92415234e+03 4.92319336e+03 4.92098584e+03 4.91994873e+03 4.91933203e+03 4.91930029e+03 4.91940332e+03 4.92018506e+03 4.92090332e+03 4.92175732e+03 4.92189600e+03 4.92085010e+03 4.92027930e+03 4.91972607e+03 4.92029492e+03 4.92086768e+03 4.92007959e+03 4.91927441e+03 4.91926807e+03 4.91922656e+03 4.91933057e+03 4.91942090e+03 4.91963135e+03 4.91955859e+03 4.91964990e+03 4.91959277e+03 4.91951367e+03 4.91939551e+03 4.91928125e+03 4.91924805e+03 4.91922607e+03 4.91923438e+03 4.91937402e+03 4.91955127e+03 4.92000830e+03 4.92034619e+03 4.91999268e+03 4.91960352e+03 4.91944336e+03 4.92031104e+03 4.92153369e+03 4.91992627e+03 4.91921777e+03 4.91925586e+03 4.91977686e+03 4.92102441e+03 4.92098096e+03 4.92033545e+03 4.92010693e+03 4.91993750e+03 4.91938330e+03 4.91933203e+03 4.91925000e+03 4.91937891e+03 4.91956641e+03 4.91990137e+03 4.92014795e+03 4.91935693e+03 4.91931787e+03 4.91939111e+03 4.91921875e+03 4.91922119e+03 4.91953418e+03 4.92010840e+03 4.91950146e+03 4.91921826e+03 4.91922168e+03 4.91954639e+03 4.92036426e+03 4.92006396e+03 4.92007373e+03 4.92016943e+03 4.92114014e+03 4.92064404e+03 4.91986523e+03 4.91983545e+03 4.92074072e+03 4.92188818e+03 4.92177246e+03 4.92129590e+03 4.92150684e+03 4.92233203e+03 4.92385156e+03 4.92482178e+03 4.92276318e+03 4.92050684e+03 4.91966455e+03 4.92000391e+03 4.92097705e+03 4.92063086e+03 4.91994824e+03 4.91985156e+03 4.92024512e+03 4.92086572e+03 4.92104102e+03 4.92110693e+03 4.92079541e+03 4.92014453e+03 4.91972656e+03 4.91953906e+03 4.91940918e+03 4.91947803e+03 4.91979834e+03 4.92043311e+03 4.92021973e+03 4.91974316e+03 4.91935400e+03 4.91956934e+03 4.91994629e+03 4.91966748e+03 4.91922168e+03 4.91930176e+03 4.91924854e+03 4.91922168e+03 4.91922217e+03 4.91927637e+03 4.91930859e+03 4.91923633e+03 4.91922021e+03 4.91930078e+03 4.91953467e+03 4.91980225e+03 4.91947119e+03 4.91935547e+03
    4.93416162e+03 4.93412695e+03 4.93412305e+03 4.93411572e+03 4.93426660e+03 4.93450537e+03 4935. 4.93530811e+03 4.93501367e+03 4.93464160e+03 4.93424561e+03 4.93425635e+03 4.93432324e+03 4.93435010e+03 4.93425000e+03 4.93419971e+03 4.93425684e+03 4.93458008e+03 4.93508105e+03 4.93520312e+03 4.93511279e+03 4.93490088e+03 4.93546484e+03 4.93583203e+03 4.93549365e+03 4.93489551e+03 4.93460010e+03 4.93474902e+03 4.93481787e+03 4.93477832e+03 4.93492236e+03 4.93524170e+03 4.93542529e+03 4.93524463e+03 4.93474365e+03 4.93469434e+03 4.93501855e+03 4.93474854e+03 4.93424170e+03 4.93411377e+03 4.93412598e+03 4.93425732e+03 4.93423047e+03 4.93414355e+03 4.93473096e+03 4.93533398e+03 4.93546826e+03 4.93575244e+03 4.93633350e+03 4.93562598e+03 4.93463770e+03 4.93439941e+03 4.93433789e+03 4.93423584e+03 4.93411426e+03 4.93413916e+03 4.93412109e+03 4.93411328e+03 4.93422119e+03 4.93434473e+03 4.93471826e+03 4.93564209e+03 4.93647461e+03 4.93603369e+03 4.93519189e+03 4.93499658e+03 4.93543213e+03 4.93526709e+03 4.93482422e+03 4.93475732e+03 4.93526807e+03 4.93503320e+03 4.93421191e+03 4.93415869e+03 4.93422754e+03 4.93411523e+03 4.93421729e+03 4.93429688e+03 4.93454688e+03 4.93438770e+03 4.93438721e+03 4.93414990e+03 4.93412793e+03 4.93420654e+03 4.93426904e+03 4.93412012e+03 4.93413672e+03 4.93418457e+03 4.93411377e+03 4.93411523e+03 4.93417090e+03 4.93443896e+03 4.93416797e+03 4.93411523e+03 4.93411328e+03 4.93421240e+03 4.93443408e+03 4.93413135e+03 4.93433594e+03 4.93465967e+03 4.93418359e+03 4.93415674e+03 4.93413232e+03 4.93411670e+03 4.93427637e+03 4.93514014e+03 4.93456201e+03 4.93414795e+03 4.93411426e+03 4.93437061e+03 4.93489648e+03 4.93460205e+03 4.93411475e+03 4.93431299e+03 4.93430029e+03 4.93412744e+03 4.93437061e+03 4.93419580e+03 4.93422412e+03 4.93418506e+03 4.93419873e+03 4.93412354e+03 4.93411621e+03 4.93411963e+03 4.93427002e+03 4.93470850e+03 4.93457275e+03 4.93413037e+03 4.93427100e+03 4.93455518e+03 4.93436426e+03 4.93445264e+03 4.93469385e+03 4.93532275e+03 4.93535791e+03 4.93492920e+03 4.93454053e+03 4.93488232e+03 4.93615674e+03 4.93816895e+03 4.93634814e+03 4.93484912e+03 4.93472168e+03 4.93590430e+03 4.93639893e+03 4.93566016e+03 4.93598584e+03 4.93658154e+03 4.93736182e+03 4.93754150e+03 4.93740527e+03 4.93845020e+03 4.93917676e+03 4.93970996e+03 4.93879492e+03 4.93720020e+03 4.93621777e+03 4.93560303e+03 4.93612158e+03 4.93685352e+03 4.93705029e+03 4.93627051e+03 4.93609766e+03 4.93727979e+03 4.93790088e+03 4.93749512e+03 4.93639893e+03 4.93631689e+03 4.93657910e+03 4.93561475e+03 4.93460840e+03 4.93428174e+03 4.93432275e+03 4.93448242e+03 4.93474561e+03 4.93472754e+03 4.93456982e+03 4.93417090e+03 4.93412891e+03 4.93412305e+03 4.93413867e+03 4.93412354e+03 4.93412402e+03 4.93411426e+03 4.93412402e+03 4.93419971e+03 4.93426904e+03 4.93420752e+03 4.93415527e+03 4.93413965e+03 4.93419824e+03 4.93428320e+03 4.93457666e+03 4.93472656e+03 4.93470068e+03 4.93455420e+03 4.93503516e+03 4.93681982e+03 4.93800830e+03 4.93647168e+03 4.93473779e+03 4.93487207e+03 4.93574707e+03 4.93587451e+03 4.93475049e+03 4.93426904e+03 4.93429395e+03 4.93429688e+03 4.93431250e+03
    4.91926074e+03 4.91935303e+03 4.91932373e+03 4.91926660e+03 4.91923584e+03 4.91929932e+03 4.91932324e+03 4.91924072e+03 4.91922510e+03 4.91924854e+03 4.91921924e+03 4.91921777e+03 4.91922119e+03 4.91937256e+03 4.92007471e+03 4.92028564e+03 4.91966504e+03 4.91922217e+03 4.91926025e+03 4.91926074e+03 4.91927686e+03 4.91926318e+03 4.91927393e+03 4.91924951e+03 4.91922070e+03 4.91922217e+03 4.91921729e+03 4.91925879e+03 4.91942578e+03 4.91945068e+03 4.91954443e+03 4.92010010e+03 4.92133789e+03 4.92162939e+03 4.92049268e+03 4.91967041e+03 4.91974902e+03 4.92023486e+03 4.92034033e+03 4.92023682e+03 4.92001953e+03 4.91984570e+03 4.91991113e+03 4.91989941e+03 4.91999609e+03 4.91992188e+03 4.91967920e+03 4.91940820e+03 4.91931738e+03 4.91921973e+03 4.91928955e+03 4.91923242e+03 4.91926855e+03 4.91950244e+03 4.91937158e+03 4.91939014e+03 4.91953418e+03 4.91940381e+03 4.91927979e+03 4.92047168e+03 4.92194482e+03 4.92142090e+03 4.92041260e+03 4.92028125e+03 4.92075488e+03 4.92135938e+03 4.92120801e+03 4.92178516e+03 4.92251807e+03 4.92196436e+03 4.92087354e+03 4.92015039e+03 4.92093408e+03 4.92096777e+03 4.92049658e+03 4.92027051e+03 4.92034277e+03 4.92039502e+03 4.92053174e+03 4.92100635e+03 4.92128906e+03 4.92050146e+03 4.91986182e+03 4.92036182e+03 4.92239209e+03 4.92410791e+03 4.92315967e+03 4.92099561e+03 4.91987695e+03 4.91927246e+03 4.91925244e+03 4.91935693e+03 4.92019189e+03 4.92090869e+03 4.92168066e+03 4.92176123e+03 4.92075732e+03 4.92024756e+03 4.91973340e+03 4.92028809e+03 4.92084277e+03 4.92008984e+03 4.91927930e+03 4.91926807e+03 4.91922705e+03 4.91932129e+03 4.91942383e+03 4.91963867e+03 4.91955176e+03 4.91964893e+03 4.91959277e+03 4.91951807e+03 4.91940039e+03 4.91928174e+03 4.91924512e+03 4.91922559e+03 4.91923828e+03 4.91938965e+03 4.91956934e+03 4.92000244e+03 4.92035840e+03 4.91998584e+03 4.91960303e+03 4.91944141e+03 4.92030176e+03 4.92152148e+03 4.91993408e+03 4.91921777e+03 4.91925098e+03 4.91979834e+03 4.92105127e+03 4.92096045e+03 4.92035205e+03 4.92010840e+03 4.91993604e+03 4.91938232e+03 4.91933057e+03 4.91924951e+03 4.91937988e+03 4.91956250e+03 4.91988086e+03 4.92013281e+03 4.91935791e+03 4.91933350e+03 4.91932422e+03 4.91922363e+03 4.91923877e+03 4.91959717e+03 4.92019336e+03 4.91952490e+03 4.91922021e+03 4.91922217e+03 4.91954053e+03 4.92032275e+03 4.92001807e+03 4.92004541e+03 4.92013184e+03 4.92100977e+03 4.92054785e+03 4.91982617e+03 4.91982568e+03 4.92072070e+03 4.92188037e+03 4.92179102e+03 4.92128760e+03 4.92146045e+03 4.92227344e+03 4.92372314e+03 4.92471680e+03 4.92262988e+03 4.92048633e+03 4.91968652e+03 4.92003320e+03 4.92101660e+03 4.92066748e+03 4.91996533e+03 4.91986621e+03 4.92025049e+03 4.92087012e+03 4.92104688e+03 4.92115479e+03 4.92082812e+03 4.92017627e+03 4.91973535e+03 4.91954248e+03 4.91941357e+03 4.91948047e+03 4.91979688e+03 4.92044189e+03 4.92022900e+03 4.91974316e+03 4.91935449e+03 4.91957666e+03 4.91994678e+03 4.91966553e+03 4.91922266e+03 4.91930176e+03 4.91925000e+03 4.91922021e+03 4.91922217e+03 4.91927734e+03 4.91930908e+03 4.91923535e+03 4.91921924e+03 4.91929883e+03 4.91953223e+03 4.91980469e+03 4.91947217e+03 4.91935498e+03
    4.91866064e+03 4.91867725e+03 4.91866992e+03 4.91866064e+03 4.91887646e+03 4.91932764e+03 4.91995215e+03 4.92009473e+03 4.91954492e+03 4.91915430e+03 4.91877930e+03 4.91878955e+03 4.91887939e+03 4.91890918e+03 4.91880518e+03 4.91873779e+03 4.91878027e+03 4.91909131e+03 4.91957764e+03 4.91975244e+03 4.91964990e+03 4.91944727e+03 4.92001611e+03 4.92037158e+03 4.92004053e+03 4.91943750e+03 4.91914258e+03 4.91925244e+03 4.91932568e+03 4.91928516e+03 4.91946484e+03 4.91976807e+03 4.91995117e+03 4.91980322e+03 4.91930078e+03 4.91924072e+03 4.91955420e+03 4.91929590e+03 4.91878809e+03 4.91866406e+03 4.91867090e+03 4.91880420e+03 4.91876660e+03 4.91869580e+03 4.91930371e+03 4.91991895e+03 4.92006055e+03 4.92034375e+03 4.92081787e+03 4.92025293e+03 4.91926758e+03 4.91902051e+03 4.91890820e+03 4.91878125e+03 4.91866162e+03 4.91868799e+03 4.91867432e+03 4.91865625e+03 4.91877100e+03 4.91889648e+03 4.91930859e+03 4.92022607e+03 4.92109570e+03 4.92064502e+03 4.91977002e+03 4.91950391e+03 4.91988281e+03 4.91968799e+03 4.91924023e+03 4.91919092e+03 4.91971631e+03 4.91958252e+03 4.91881934e+03 4.91865674e+03 4.91867676e+03 4.91865869e+03 4.91873535e+03 4.91881055e+03 4.91912256e+03 4.91888281e+03 4.91883643e+03 4.91867627e+03 4.91866846e+03 4.91870703e+03 4.91877441e+03 4.91865967e+03 4.91867969e+03 4.91872705e+03 4.91865430e+03 4.91866113e+03 4.91870410e+03 4.91896143e+03 4.91870801e+03 4.91865820e+03 4.91866504e+03 4.91882764e+03 4.91910107e+03 4.91869189e+03 4.91887451e+03 4.91920117e+03 4.91872949e+03 4.91873047e+03 4.91873438e+03 4.91869482e+03 4.91889844e+03 4.91968311e+03 4.91913525e+03 4.91869775e+03 4.91865674e+03 4.91890820e+03 4.91944189e+03 4.91916895e+03 4.91865771e+03 4.91893555e+03 4.91903271e+03 4.91866553e+03 4.91881299e+03 4.91872217e+03 4.91876416e+03 4.91873096e+03 4.91874268e+03 4.91866846e+03 4.91865771e+03 4.91867139e+03 4.91886572e+03 4.91930859e+03 4.91913428e+03 4.91868750e+03 4.91878271e+03 4.91906543e+03 4.91890479e+03 4.91892383e+03 4.91901709e+03 4.91955029e+03 4.91974121e+03 4.91958301e+03 4.91916064e+03 4.91952734e+03 4.92083643e+03 4.92293213e+03 4.92100488e+03 4.91938086e+03 4.91926709e+03 4.92099805e+03 4.92165186e+03 4.92079053e+03 4.92058008e+03 4.92124854e+03 4.92209521e+03 4.92225391e+03 4.92204932e+03 4.92293408e+03 4.92359180e+03 4.92419092e+03 4.92328369e+03 4.92171240e+03 4.92069385e+03 4.92010352e+03 4.92069092e+03 4.92147705e+03 4.92172510e+03 4.92090869e+03 4.92068066e+03 4.92170850e+03 4.92222852e+03 4.92179590e+03 4.92080713e+03 4.92080322e+03 4.92111182e+03 4.91986426e+03 4.91885498e+03 4.91866943e+03 4.91870898e+03 4.91888965e+03 4.91915869e+03 4.91924414e+03 4.91916309e+03 4.91877734e+03 4.91871338e+03 4.91868164e+03 4.91867871e+03 4.91866260e+03 4.91866797e+03 4.91865918e+03 4.91866943e+03 4.91874268e+03 4.91881641e+03 4.91875488e+03 4.91871387e+03 4.91872461e+03 4.91884814e+03 4.91894824e+03 4.91919092e+03 4.91926367e+03 4.91925635e+03 4.91910400e+03 4.91957861e+03 4.92134717e+03 4.92257129e+03 4.92100928e+03 4.91927832e+03 4.91930469e+03 4.91995068e+03 4.92004248e+03 4.91917773e+03 4.91881738e+03 4.91883789e+03 4.91884375e+03 4.91885742e+03
    4.93256104e+03 4.93268164e+03 4.93265723e+03 4.93261768e+03 4.93258887e+03 4.93265332e+03 4.93270117e+03 4.93260693e+03 4.93255713e+03 4.93257617e+03 4.93255518e+03 4.93255078e+03 4.93255713e+03 4.93270947e+03 4.93341064e+03 4.93362988e+03 4.93300928e+03 4.93255615e+03 4.93259570e+03 4.93260889e+03 4.93262109e+03 4.93260059e+03 4.93261475e+03 4.93259229e+03 4.93256494e+03 4.93255762e+03 4.93256445e+03 4.93261670e+03 4.93279297e+03 4.93278809e+03 4.93288135e+03 4.93341992e+03 4.93464209e+03 4.93494922e+03 4.93381348e+03 4.93300293e+03 4.93308252e+03 4.93360596e+03 4.93378320e+03 4.93364551e+03 4.93336670e+03 4.93316309e+03 4.93323291e+03 4.93321582e+03 4.93328564e+03 4.93321045e+03 4.93299365e+03 4.93274414e+03 4.93266455e+03 4.93255518e+03 4.93262305e+03 4.93257178e+03 4.93260938e+03 4.93284619e+03 4.93270850e+03 4.93272803e+03 4.93284082e+03 4.93282031e+03 4.93255273e+03 4.93342285e+03 4.93499609e+03 4.93479932e+03 4.93375928e+03 4.93361182e+03 4.93408838e+03 4.93469678e+03 4.93454932e+03 4.93509717e+03 4.93582812e+03 4.93535400e+03 4.93423975e+03 4.93349023e+03 4.93424805e+03 4.93431299e+03 4.93385254e+03 4.93360596e+03 4.93369189e+03 4.93373389e+03 4.93386328e+03 4.93433252e+03 4.93461719e+03 4.93383789e+03 4.93320410e+03 4.93370166e+03 4.93571631e+03 4.93749512e+03 4.93653271e+03 4.93435547e+03 4.93326172e+03 4.93263965e+03 4.93260938e+03 4.93270117e+03 4.93353418e+03 4.93423975e+03 4.93505811e+03 4.93513477e+03 4.93408398e+03 4.93354932e+03 4.93304395e+03 4.93364404e+03 4.93420654e+03 4.93342822e+03 4.93261865e+03 4.93261475e+03 4.93256689e+03 4.93266309e+03 4.93275586e+03 4.93298535e+03 4.93291699e+03 4.93301074e+03 4.93293799e+03 4.93286035e+03 4.93274170e+03 4.93262109e+03 4.93258838e+03 4.93257324e+03 4.93257959e+03 4.93271631e+03 4.93288184e+03 4.93330615e+03 4.93368799e+03 4.93333350e+03 4.93294873e+03 4.93279053e+03 4.93365820e+03 4.93487646e+03 4.93327295e+03 4.93256299e+03 4.93259473e+03 4.93313574e+03 4.93440381e+03 4.93432275e+03 4.93368604e+03 4.93344385e+03 4.93327441e+03 4.93274121e+03 4.93268311e+03 4.93259131e+03 4.93271094e+03 4.93290771e+03 4.93325195e+03 4.93349316e+03 4.93269043e+03 4.93264355e+03 4.93270557e+03 4.93256201e+03 4.93256396e+03 4.93289844e+03 4.93345557e+03 4.93284766e+03 4.93255713e+03 4.93256982e+03 4.93290771e+03 4.93369287e+03 4.93338867e+03 4.93338672e+03 4.93352539e+03 4.93444238e+03 4.93395557e+03 4.93316260e+03 4.93315283e+03 4.93404492e+03 4.93522412e+03 4.93508887e+03 4.93462109e+03 4.93483643e+03 4.93564502e+03 4.93705908e+03 4.93810547e+03 4.93611035e+03 4.93389697e+03 4.93300928e+03 4.93334717e+03 4.93428955e+03 4.93393262e+03 4.93327148e+03 4.93320410e+03 4.93359717e+03 4.93422656e+03 4.93439355e+03 4.93450000e+03 4.93417676e+03 4.93352148e+03 4.93308301e+03 4.93288623e+03 4.93276514e+03 4.93282031e+03 4.93314404e+03 4.93377441e+03 4.93355762e+03 4.93307080e+03 4.93269189e+03 4.93291064e+03 4.93328516e+03 4.93301025e+03 4.93256055e+03 4.93263721e+03 4.93258301e+03 4.93256299e+03 4.93257227e+03 4.93261572e+03 4.93264600e+03 4.93257324e+03 4.93256445e+03 4.93264355e+03 4.93287256e+03 4.93313623e+03 4.93280859e+03 4.93268945e+03
    4.91670801e+03 4.91670410e+03 4.91672070e+03 4.91670410e+03 4.91690332e+03 4.91735059e+03 4.91804395e+03 4.91824072e+03 4.91766602e+03 4.91722754e+03 4.91682373e+03 4.91683496e+03 4.91691357e+03 4.91700928e+03 4.91696240e+03 4.91687891e+03 4.91685547e+03 4.91710498e+03 4.91761426e+03 4.91778223e+03 4.91768994e+03 4.91750000e+03 4.91804346e+03 4.91841357e+03 4.91806982e+03 4.91744824e+03 4.91714795e+03 4.91725488e+03 4.91735254e+03 4.91736182e+03 4.91753467e+03 4.91785693e+03 4.91804199e+03 4.91785645e+03 4.91731348e+03 4.91718359e+03 4.91750684e+03 4.91723340e+03 4.91680176e+03 4.91668359e+03 4.91671143e+03 4.91685205e+03 4.91682275e+03 4.91668994e+03 4.91710498e+03 4.91769629e+03 4.91799268e+03 4.91835303e+03 4.91882959e+03 4.91835156e+03 4.91746045e+03 4.91719434e+03 4.91698975e+03 4.91681885e+03 4.91669629e+03 4.91671973e+03 4.91668799e+03 4.91668701e+03 4.91688135e+03 4.91720508e+03 4.91772705e+03 4.91859619e+03 4.91927881e+03 4.91867334e+03 4.91766113e+03 4.91737842e+03 4.91780029e+03 4.91769775e+03 4.91725879e+03 4.91722168e+03 4.91775000e+03 4.91761865e+03 4.91686768e+03 4.91668555e+03 4.91668555e+03 4.91671924e+03 4.91689648e+03 4.91695898e+03 4.91719092e+03 4.91691455e+03 4.91687939e+03 4.91673779e+03 4.91670361e+03 4.91669629e+03 4.91675195e+03 4.91670996e+03 4.91671826e+03 4.91674512e+03 4.91670410e+03 4.91669092e+03 4.91673926e+03 4.91698389e+03 4.91674023e+03 4.91669385e+03 4.91669434e+03 4.91689258e+03 4.91719189e+03 4.91675098e+03 4.91689795e+03 4.91727881e+03 4.91684326e+03 4.91670068e+03 4.91670557e+03 4.91670654e+03 4.91682373e+03 4.91775195e+03 4.91717432e+03 4.91675244e+03 4.91668652e+03 4.91695215e+03 4.91747656e+03 4.91720752e+03 4.91669971e+03 4.91701660e+03 4.91718408e+03 4.91671729e+03 4.91678369e+03 4.91673779e+03 4.91677197e+03 4.91675781e+03 4.91677686e+03 4.91669482e+03 4.91669678e+03 4.91673291e+03 4.91694189e+03 4.91738232e+03 4.91719092e+03 4.91672168e+03 4.91684961e+03 4.91724072e+03 4.91705664e+03 4.91702686e+03 4.91704834e+03 4.91757422e+03 4.91776172e+03 4.91763232e+03 4.91718799e+03 4.91756152e+03 4.91886963e+03 4.92094824e+03 4.91900391e+03 4.91741455e+03 4.91731299e+03 4.91908545e+03 4.91964795e+03 4.91867334e+03 4.91864795e+03 4.91959277e+03 4.92054736e+03 4.92049365e+03 4.92002393e+03 4.92101367e+03 4.92169678e+03 4.92227051e+03 4.92072998e+03 4.91888184e+03 4.91806104e+03 4.91786328e+03 4.91861279e+03 4.91933105e+03 4.91966064e+03 4.91893652e+03 4.91880029e+03 4.91989648e+03 4.92044531e+03 4.91994482e+03 4.91886816e+03 4.91884521e+03 4.91906396e+03 4.91780811e+03 4.91685498e+03 4.91668799e+03 4.91674463e+03 4.91693262e+03 4.91720215e+03 4.91726709e+03 4.91722803e+03 4.91684326e+03 4.91677539e+03 4.91672363e+03 4.91670752e+03 4.91669092e+03 4.91669775e+03 4.91668408e+03 4.91669775e+03 4.91677832e+03 4.91683447e+03 4.91677100e+03 4.91677979e+03 4.91684863e+03 4.91703760e+03 4.91705615e+03 4.91723438e+03 4.91731250e+03 4.91728223e+03 4.91715674e+03 4.91763330e+03 4.91942578e+03 4.92058350e+03 4.91903711e+03 4.91731348e+03 4.91733203e+03 4.91797412e+03 4.91808252e+03 4.91720508e+03 4.91684814e+03 4.91688135e+03 4.91688721e+03 4.91694385e+03
    2.10901880e+03 2.10901294e+03 2.10901831e+03 2.10901733e+03 2.10911353e+03 2.10932568e+03 2.10947095e+03 2.10925684e+03 2.10905811e+03 2.10905957e+03 2.10906763e+03 2.10909302e+03 2.10907959e+03 2.10902661e+03 2.10903320e+03 2.10904663e+03 2.10901611e+03 2.10903491e+03 2.10905884e+03 2.10909937e+03 2.10914233e+03 2.10916504e+03 2.10932080e+03 2.10939087e+03 2.10929102e+03 2.10914331e+03 2.10904492e+03 2.10905054e+03 2.10904736e+03 2.10908447e+03 2.10921826e+03 2.10947925e+03 2.10978613e+03 2.10964722e+03 2.10931201e+03 2.10911670e+03 2.10917163e+03 2.10920581e+03 2.10920654e+03 2.10916821e+03 2.10921558e+03 2.10926123e+03 2.10926514e+03 2.10912646e+03 2.10902905e+03 2.10902856e+03 2.10908984e+03 2.10913135e+03 2.10912524e+03 2.10909351e+03 2.10907666e+03 2.10905469e+03 2.10901660e+03 2.10906128e+03 2.10911816e+03 2.10913135e+03 2.10914575e+03 2.10917969e+03 2.10903809e+03 2.10907324e+03 2.10951318e+03 2.11000098e+03 2.10985327e+03 2.10929785e+03 2.10901685e+03 2.10901636e+03 2.10913184e+03 2.10961621e+03 2.10987354e+03 2.10970166e+03 2.10953931e+03 2.10929736e+03 2.10926709e+03 2.10911450e+03 2.10901953e+03 2.10913989e+03 2.10908154e+03 2.10901465e+03 2.10915283e+03 2.10908032e+03 2.10903271e+03 2.10905444e+03 2.10916870e+03 2.10907861e+03 2.10901831e+03 2.10912256e+03 2.10912671e+03 2.10912744e+03 2.10915479e+03 2.10918774e+03 2.10923315e+03 2.10922510e+03 2.10912891e+03 2.10906567e+03 2.10904492e+03 2.10906348e+03 2.10907739e+03 2.10901831e+03 2.10916016e+03 2.10910376e+03 2.10903516e+03 2.10910889e+03 2.10901587e+03 2.10910815e+03 2.10911084e+03 2.10902075e+03 2.10904053e+03 2.10903198e+03 2.10902002e+03 2.10904736e+03 2.10913379e+03 2.10909302e+03 2.10902441e+03 2.10903223e+03 2.10904492e+03 2.10903027e+03 2.10903027e+03 2.10908936e+03 2.10923901e+03 2.10920312e+03 2.10907837e+03 2.10901807e+03 2.10911011e+03 2.10916406e+03 2.10901929e+03 2.10938037e+03 2.10930054e+03 2.10902246e+03 2.10907324e+03 2.10901489e+03 2.10905908e+03 2.10904785e+03 2.10902148e+03 2.10901978e+03 2.10902026e+03 2.10904248e+03 2.10901807e+03 2.10902441e+03 2.10907983e+03 2.10931934e+03 2.10913525e+03 2.10904053e+03 2.10905444e+03 2.10954077e+03 2.10964771e+03 2.10945776e+03 2.10935229e+03 2.10950049e+03 2.10957690e+03 2.10935645e+03 2.10919287e+03 2.10945557e+03 2.11003418e+03 2.11064478e+03 2.11030615e+03 2.10976831e+03 2.10948267e+03 2.10937427e+03 2.10941187e+03 2.10940967e+03 2.10941309e+03 2.10941943e+03 2.10952100e+03 2.10972510e+03 2.10977197e+03 2.10963330e+03 2.10948999e+03 2.10956226e+03 2.10990015e+03 2.10949878e+03 2.10909131e+03 2.10902295e+03 2.10901392e+03 2.10910303e+03 2.10914307e+03 2.10906787e+03 2.10902417e+03 2.10904712e+03 2.10916479e+03 2.10919214e+03 2.10913867e+03 2.10908936e+03 2.10903198e+03 2.10901904e+03 2.10901880e+03 2.10902124e+03 2.10901465e+03 2.10901440e+03 2.10909375e+03 2.10912964e+03 2.10907617e+03 2.10902002e+03 2.10901587e+03 2.10902295e+03 2.10904004e+03 2.10912793e+03 2.10904004e+03 2.10909131e+03 2.10939551e+03 2.10940503e+03 2.10921265e+03 2.10916748e+03 2.10914355e+03 2.10907031e+03 2.10904907e+03 2.10906421e+03 2.10917456e+03 2.10913647e+03 2.10915210e+03
    7.76725464e+02 7.76723267e+02 7.76724792e+02 7.76723267e+02 7.76723816e+02 7.76724365e+02 7.76725891e+02 7.76770508e+02 7.76821167e+02 7.76769714e+02 7.76723328e+02 7.76724487e+02 7.76723511e+02 7.76766357e+02 7.76840820e+02 7.76838806e+02 7.76797852e+02 7.76773804e+02 7.76828003e+02 7.76802368e+02 7.76769897e+02 7.76741821e+02 7.76743164e+02 7.76751831e+02 7.76754395e+02 7.76747925e+02 7.76766541e+02 7.76789062e+02 7.76799988e+02 7.76768005e+02 7.76734802e+02 7.76723206e+02 7.76737000e+02 7.76732361e+02 7.76726318e+02 7.76733032e+02 7.76745972e+02 7.76724304e+02 7.76748596e+02 7.76806091e+02 7.76797668e+02 7.76759338e+02 7.76761169e+02 7.76800659e+02 7.76861145e+02 7.76876526e+02 7.76832947e+02 7.76850464e+02 7.76921692e+02 7.76882080e+02 7.76775208e+02 7.76761230e+02 7.76804810e+02 7.76837524e+02 7.76794373e+02 7.76762268e+02 7.76781982e+02 7.76809265e+02 7.76808350e+02 7.76751709e+02 7.76723694e+02 7.76725525e+02 7.76732544e+02 7.76803589e+02 7.76892456e+02 7.76848083e+02 7.76799011e+02 7.76729126e+02 7.76811462e+02 7.76789856e+02 7.76725464e+02 7.76727112e+02 7.76738281e+02 7.76738464e+02 7.76737183e+02 7.76885254e+02 7.76877625e+02 7.76773254e+02 7.76724731e+02 7.76725586e+02 7.76732117e+02 7.76766968e+02 7.76802673e+02 7.76737976e+02 7.76740662e+02 7.76799622e+02 7.76754944e+02 7.76749023e+02 7.76824646e+02 7.76831909e+02 7.76790405e+02 7.76732788e+02 7.76750061e+02 7.76739685e+02 7.76727783e+02 7.76729492e+02 7.76745850e+02 7.76740601e+02 7.76726440e+02 7.76743469e+02 7.76802612e+02 7.76771973e+02 7.76724915e+02 7.76788574e+02 7.76918762e+02 7.77037292e+02 7.76909729e+02 7.76755981e+02 7.76725830e+02 7.76734070e+02 7.76753845e+02 7.76742981e+02 7.76723755e+02 7.76741882e+02 7.76738770e+02 7.76727844e+02 7.76735962e+02 7.76730957e+02 7.76761597e+02 7.76760559e+02 7.76725342e+02 7.76735474e+02 7.76752808e+02 7.76782227e+02 7.76727356e+02 7.76738647e+02 7.76728760e+02 7.76723206e+02 7.76722961e+02 7.76838989e+02 7.76903687e+02 7.76874390e+02 7.76825012e+02 7.76882324e+02 7.76932800e+02 7.76883179e+02 7.76839294e+02 7.76875488e+02 7.76987427e+02 7.77046753e+02 7.76938416e+02 7.76808533e+02 7.76768982e+02 7.76753296e+02 7.76763428e+02 7.76750671e+02 7.76770996e+02 7.76801147e+02 7.76856873e+02 7.76967041e+02 7.77027710e+02 7.76980225e+02 7.76840454e+02 7.76763428e+02 7.76741455e+02 7.76727844e+02 7.76725281e+02 7.76727722e+02 7.76758301e+02 7.76810303e+02 7.76840393e+02 7.76780701e+02 7.76752319e+02 7.76767578e+02 7.76776245e+02 7.76777405e+02 7.76751038e+02 7.76745300e+02 7.76723450e+02 7.76722656e+02 7.76723083e+02 7.76739075e+02 7.76745239e+02 7.76726196e+02 7.76733337e+02 7.76763367e+02 7.76809570e+02 7.76729248e+02 7.76742249e+02 7.76773987e+02 7.76766052e+02 7.76756592e+02 7.76731567e+02 7.76726013e+02 7.76723328e+02 7.76730774e+02 7.76743408e+02 7.76737305e+02 7.76728394e+02 7.76733398e+02 7.76723633e+02 7.76748474e+02 7.76788147e+02 7.76807251e+02 7.76908081e+02 7.77021240e+02 7.77060913e+02 7.77054688e+02 7.76951355e+02 7.76797668e+02 7.76727234e+02 7.76728943e+02 7.76786560e+02 7.76856628e+02 7.76760742e+02 7.76723633e+02 7.76733765e+02 7.76725708e+02 7.76725769e+02
    3.97641907e+02 3.97641479e+02 3.97639954e+02 3.97640259e+02 3.97639404e+02 3.97639648e+02 3.97640961e+02 3.97640289e+02 3.97639984e+02 3.97639618e+02 3.97639252e+02 3.97639923e+02 3.97639984e+02 3.97639465e+02 3.97639984e+02 3.97639374e+02 3.97640076e+02 3.97640411e+02 3.97640198e+02 3.97640411e+02 3.97639984e+02 3.97640442e+02 3.97640350e+02 3.97640320e+02 3.97640137e+02 3.97639099e+02 3.97639648e+02 3.97639191e+02 3.97639862e+02 3.97639832e+02 3.97639801e+02 3.97639618e+02 3.97640717e+02 3.97642426e+02 3.97639984e+02 3.97640289e+02 3.97639923e+02 3.97640411e+02 3.97639893e+02 3.97640167e+02 3.97639740e+02 3.97640411e+02 3.97640228e+02 3.97639862e+02 3.97640289e+02 3.97639374e+02 3.97639954e+02 3.97639618e+02 3.97640350e+02 3.97640076e+02 3.97639709e+02 3.97639801e+02 3.97640472e+02 3.97640503e+02 3.97639923e+02 3.97639709e+02 3.97640717e+02 3.97639069e+02 3.97640259e+02 3.97639709e+02 3.97640137e+02 3.97639343e+02 3.97639893e+02 3.97640289e+02 3.97640686e+02 3.97639679e+02 3.97639526e+02 3.97639587e+02 3.97640625e+02 3.97642212e+02 3.97641357e+02 3.97640533e+02 3.97640198e+02 3.97643646e+02 3.97645386e+02 3.97641235e+02 3.97640045e+02 3.97639587e+02 3.97639923e+02 3.97639252e+02 3.97638794e+02 3.97639465e+02 3.97640167e+02 3.97640686e+02 3.97641357e+02 3.97642120e+02 3.97640961e+02 3.97640442e+02 3.97639923e+02 3.97640778e+02 3.97639984e+02 3.97640503e+02 3.97639832e+02 3.97642029e+02 3.97644562e+02 3.97641602e+02 3.97640289e+02 3.97639618e+02 3.97640259e+02 3.97640350e+02 3.97639740e+02 3.97640839e+02 3.97650177e+02 3.97654968e+02 3.97646240e+02 3.97639618e+02 3.97640198e+02 3.97640411e+02 3.97639771e+02 3.97639984e+02 3.97639404e+02 3.97639740e+02 3.97639984e+02 3.97639984e+02 3.97640442e+02 3.97639069e+02 3.97640533e+02 3.97639893e+02 3.97640442e+02 3.97640259e+02 3.97639740e+02 3.97639893e+02 3.97641907e+02 3.97651764e+02 3.97656616e+02 3.97648987e+02 3.97639618e+02 3.97640503e+02 3.97641541e+02 3.97639221e+02 3.97639435e+02 3.97642731e+02 3.97657562e+02 3.97664856e+02 3.97658203e+02 3.97640167e+02 3.97639069e+02 3.97638763e+02 3.97640137e+02 3.97639435e+02 3.97638702e+02 3.97638611e+02 3.97639435e+02 3.97642090e+02 3.97644287e+02 3.97644165e+02 3.97642487e+02 3.97641876e+02 3.97641327e+02 3.97640381e+02 3.97640106e+02 3.97640259e+02 3.97639771e+02 3.97640198e+02 3.97641083e+02 3.97642334e+02 3.97643280e+02 3.97642975e+02 3.97643066e+02 3.97640991e+02 3.97640350e+02 3.97640045e+02 3.97640076e+02 3.97640533e+02 3.97640106e+02 3.97640198e+02 3.97640015e+02 3.97641266e+02 3.97641205e+02 3.97645416e+02 3.97652252e+02 3.97651123e+02 3.97646271e+02 3.97641479e+02 3.97640167e+02 3.97639374e+02 3.97641205e+02 3.97645752e+02 3.97647217e+02 3.97642456e+02 3.97639984e+02 3.97640564e+02 3.97640106e+02 3.97640228e+02 3.97640137e+02 3.97639679e+02 3.97640472e+02 3.97639801e+02 3.97640442e+02 3.97640930e+02 3.97642578e+02 3.97642609e+02 3.97642029e+02 3.97641510e+02 3.97641479e+02 3.97640228e+02 3.97640717e+02 3.97640106e+02 3.97640381e+02 3.97640015e+02 3.97640442e+02 3.97648560e+02 3.97660400e+02 3.97659180e+02 3.97646118e+02 3.97639984e+02 3.97639984e+02 3.97639709e+02 3.97641022e+02
    1.57674881e+02 1.57674713e+02 1.57674622e+02 1.57674622e+02 1.57675034e+02 1.57675186e+02 1.57675110e+02 1.57674622e+02 1.57674789e+02 1.57674713e+02 1.57674591e+02 1.57674652e+02 1.57674591e+02 1.57674759e+02 1.57674881e+02 1.57674988e+02 1.57674820e+02 1.57674774e+02 1.57674973e+02 1.57674896e+02 1.57675186e+02 1.57676498e+02 1.57676529e+02 1.57676025e+02 1.57674545e+02 1.57674637e+02 1.57674698e+02 1.57674652e+02 1.57674835e+02 1.57674820e+02 1.57674942e+02 1.57675537e+02 1.57675507e+02 1.57676132e+02 1.57674866e+02 1.57674957e+02 1.57674881e+02 1.57674591e+02 1.57674911e+02 1.57674850e+02 1.57675079e+02 1.57674866e+02 1.57674698e+02 1.57674698e+02 1.57674713e+02 1.57674561e+02 1.57674591e+02 1.57675461e+02 1.57676147e+02 1.57675262e+02 1.57674896e+02 1.57674820e+02 1.57674820e+02 1.57674667e+02 1.57674667e+02 1.57674713e+02 1.57674896e+02 1.57675079e+02 1.57674652e+02 1.57675491e+02 1.57677048e+02 1.57677567e+02 1.57675812e+02 1.57675156e+02 1.57674561e+02 1.57674606e+02 1.57675186e+02 1.57677460e+02 1.57678040e+02 1.57676590e+02 1.57675400e+02 1.57674927e+02 1.57675323e+02 1.57674728e+02 1.57675186e+02 1.57676468e+02 1.57675217e+02 1.57674698e+02 1.57674957e+02 1.57674561e+02 1.57674500e+02 1.57674545e+02 1.57674820e+02 1.57674637e+02 1.57674606e+02 1.57675171e+02 1.57674988e+02 1.57674728e+02 1.57674973e+02 1.57674866e+02 1.57675201e+02 1.57675110e+02 1.57675156e+02 1.57674850e+02 1.57674698e+02 1.57674698e+02 1.57674576e+02 1.57674667e+02 1.57675018e+02 1.57674667e+02 1.57674850e+02 1.57674728e+02 1.57674652e+02 1.57675674e+02 1.57675308e+02 1.57674789e+02 1.57674728e+02 1.57674500e+02 1.57674622e+02 1.57674637e+02 1.57674789e+02 1.57674652e+02 1.57674866e+02 1.57674561e+02 1.57674667e+02 1.57674683e+02 1.57674500e+02 1.57674927e+02 1.57675720e+02 1.57675415e+02 1.57674942e+02 1.57674744e+02 1.57674759e+02 1.57674698e+02 1.57675293e+02 1.57676865e+02 1.57675674e+02 1.57674545e+02 1.57674835e+02 1.57675339e+02 1.57677322e+02 1.57677673e+02 1.57675995e+02 1.57675323e+02 1.57675095e+02 1.57675491e+02 1.57676178e+02 1.57676849e+02 1.57676392e+02 1.57675446e+02 1.57676224e+02 1.57676620e+02 1.57675613e+02 1.57674744e+02 1.57674652e+02 1.57679260e+02 1.57674622e+02 1.57674789e+02 1.57674652e+02 1.57675034e+02 1.57675278e+02 1.57674927e+02 1.57674667e+02 1.57674835e+02 1.57675690e+02 1.57675705e+02 1.57675003e+02 1.57675049e+02 1.57675339e+02 1.57675812e+02 1.57676193e+02 1.57676788e+02 1.57677643e+02 1.57677689e+02 1.57677307e+02 1.57676285e+02 1.57676208e+02 1.57676102e+02 1.57677048e+02 1.57675858e+02 1.57675415e+02 1.57674561e+02 1.57674744e+02 1.57674866e+02 1.57674759e+02 1.57674622e+02 1.57674652e+02 1.57674683e+02 1.57674744e+02 1.57674728e+02 1.57674911e+02 1.57674896e+02 1.57674942e+02 1.57675171e+02 1.57675003e+02 1.57675003e+02 1.57674927e+02 1.57674896e+02 1.57674667e+02 1.57674637e+02 1.57674728e+02 1.57674988e+02 1.57675446e+02 1.57675934e+02 1.57674805e+02 1.57674759e+02 1.57675369e+02 1.57675079e+02 1.57674942e+02 1.57674774e+02 1.57674744e+02 1.57674973e+02 1.57674911e+02 1.57674850e+02 1.57674759e+02 1.57674881e+02 1.57674774e+02 1.57675308e+02 1.57677856e+02
    6.64283218e+01 6.64280701e+01 6.64280853e+01 6.64279404e+01 6.64282837e+01 6.64287567e+01 6.64294662e+01 6.64287720e+01 6.64283524e+01 6.64281158e+01 6.64281235e+01 6.64281006e+01 6.64283142e+01 6.64280853e+01 6.64281769e+01 6.64285736e+01 6.64293137e+01 6.64293594e+01 6.64279251e+01 6.64277420e+01 6.64277191e+01 6.64281311e+01 6.64284592e+01 6.64283142e+01 6.64276657e+01 6.64277115e+01 6.64276657e+01 6.64276352e+01 6.64276733e+01 6.64277191e+01 6.64278641e+01 6.64276962e+01 6.64277496e+01 6.64281540e+01 6.64282227e+01 6.64282761e+01 6.64275360e+01 6.64274750e+01 6.64275742e+01 6.64276962e+01 6.64277878e+01 6.64275284e+01 6.64275818e+01 6.64278107e+01 6.64279404e+01 6.64281540e+01 6.64278946e+01 6.64275055e+01 6.64275818e+01 6.64277649e+01 6.64286804e+01 6.64288940e+01 6.64279404e+01 6.64275970e+01 6.64275208e+01 6.64281082e+01 6.64283829e+01 6.64284744e+01 6.64283600e+01 6.64283142e+01 6.64286880e+01 6.64280319e+01 6.64278183e+01 6.64277573e+01 6.64279022e+01 6.64281158e+01 6.64283142e+01 6.64287796e+01 6.64289246e+01 6.64288254e+01 6.64282913e+01 6.64279938e+01 6.64282990e+01 6.64299469e+01 6.64310684e+01 6.64299774e+01 6.64285889e+01 6.64285736e+01 6.64289246e+01 6.64282455e+01 6.64278336e+01 6.64279175e+01 6.64278107e+01 6.64281235e+01 6.64290924e+01 6.64304886e+01 6.64311523e+01 6.64302597e+01 6.64307022e+01 6.64300385e+01 6.64300232e+01 6.64307251e+01 6.64321976e+01 6.64324646e+01 6.64305954e+01 6.64288940e+01 6.64286118e+01 6.64282150e+01 6.64282684e+01 6.64283218e+01 6.64289627e+01 6.64322357e+01 6.64360504e+01 6.64362259e+01 6.64330215e+01 6.64296570e+01 6.64292374e+01 6.64289703e+01 6.64293671e+01 6.64303970e+01 6.64318237e+01 6.64318390e+01 6.64307709e+01 6.64288559e+01 6.64280624e+01 6.64278870e+01 6.64281845e+01 6.64284439e+01 6.64283524e+01 6.64283524e+01 6.64281540e+01 6.64279327e+01 6.64277878e+01 6.64286118e+01 6.64282227e+01 6.64277191e+01 6.64277496e+01 6.64279556e+01 6.64280930e+01 6.64278030e+01 6.64279709e+01 6.64284897e+01 6.64294357e+01 6.64292984e+01 6.64289322e+01 6.64285736e+01 6.64284058e+01 6.64288330e+01 6.64276733e+01 6.64331818e+01 6.64319687e+01 6.64277573e+01 6.64279022e+01 6.64284058e+01 6.64284668e+01 6.64284897e+01 6.64317856e+01 6.64327393e+01 6.64314728e+01 6.64302521e+01 6.64342880e+01 6.64377899e+01 6.64323273e+01 6.64311218e+01 6.64344482e+01 6.64482040e+01 6.64535980e+01 6.64441986e+01 6.64316254e+01 6.64281082e+01 6.64299088e+01 6.64281464e+01 6.64364548e+01 6.64376907e+01 6.64278412e+01 6.64301910e+01 6.64289474e+01 6.64277725e+01 6.64284821e+01 6.64284973e+01 6.64291458e+01 6.64285736e+01 6.64299850e+01 6.64303513e+01 6.64306335e+01 6.64281235e+01 6.64288406e+01 6.64331512e+01 6.64424973e+01 6.64460144e+01 6.64794846e+01 6.65208817e+01 6.65290298e+01 6.65415039e+01 6.65082092e+01 6.65153503e+01 6.64815750e+01 6.64669342e+01 6.64575577e+01 6.64754486e+01 6.65590134e+01 6.66266632e+01 6.65722809e+01 6.64667358e+01 6.64350662e+01 6.64553299e+01 6.64809418e+01 6.65429840e+01 6.65021744e+01 6.66159668e+01 6.66193237e+01 6.66529160e+01 6.66998596e+01 6.68554001e+01 6.67029495e+01 6.65266876e+01 6.64310455e+01 6.64319687e+01 6.64298019e+01</data></ring32_8>
</opencv_storage>
