<?xml version="1.0"?>
<opencv_storage>
<ring32_3 type_id="opencv-matrix">
  <rows>30</rows>
  <cols>202</cols>
  <dt>f</dt>
  <data>
    2.56664795e+03 2.52759546e+03 2.56209937e+03 2.57773145e+03 2.43116479e+03 2.26177539e+03 2.25491895e+03 2.27746802e+03 2.20891846e+03 2.18891772e+03 2.15442798e+03 2.04360193e+03 2.01199146e+03 1.98614709e+03 1.90490674e+03 1.85127136e+03 1.79030420e+03 1.74593237e+03 1.69035669e+03 1.61600684e+03 1.58483984e+03 1.56788806e+03 1.54529065e+03 1.44861194e+03 1.35198425e+03 1.31271533e+03 1.28445117e+03 1.24508923e+03 1.18785889e+03 1.11579504e+03 1.04746436e+03 1.01266913e+03 9.76263977e+02 9.18581604e+02 8.59827332e+02 8.04129395e+02 7.41520752e+02 6.78687378e+02 6.29795288e+02 5.95631592e+02 5.45774658e+02 4.83923859e+02 4.29245361e+02 3.63377960e+02 3.16239777e+02 2.70775299e+02 2.14675674e+02 1.66949265e+02 1.08594185e+02 5.00743599e+01 -3.44601464e+00 -5.85699959e+01 -1.13575439e+02 -1.68849518e+02 -2.14951614e+02 -2.57070618e+02 -3.20094971e+02 -3.77495209e+02 -4.23645355e+02 -4.83068390e+02 -5.41776978e+02 -5.90391357e+02 -6.43370667e+02 -6.89805908e+02 -7.49098328e+02 -8.17757385e+02 -8.66579041e+02 -9.22495239e+02 -9.41183472e+02 -9.80384644e+02 -1.07054065e+03 -1.12556506e+03 -1.19989819e+03 -1.25543933e+03 -1.25638965e+03 -1.30137024e+03 -1.39644653e+03 -1.49118713e+03 -1.51966577e+03 -1.53735840e+03 -1.58980664e+03 -1.59802405e+03 -1.68064648e+03 -1.78422864e+03 -1.79696741e+03 -1.86217456e+03 -1.90184863e+03 -1.92086340e+03 -1.96956274e+03 -2.09261743e+03 -2.17502368e+03 -2.17973511e+03 -2.23146289e+03 -2.23004199e+03 -2.31418237e+03 -2.39225366e+03 -2.42286353e+03 -2.53718384e+03 -2.50367358e+03 -2.50579053e+03 -2.60309961e+03 -2.63390674e+03 -2.73943237e+03 -2.91831323e+03 -2.93746655e+03 -2.80652612e+03 -2.82370679e+03 -2.92834692e+03 -2.96035474e+03 -3.07331714e+03 -3.19070776e+03 -3.16179077e+03 -3.17162134e+03 -3.23482495e+03 -3.35161523e+03 -3.43330542e+03 -3.43045776e+03 -3.56824048e+03 -3.58631982e+03 -3.44635986e+03 -3.48642798e+03 -3.65412524e+03 -3.76041089e+03 -3.81190576e+03 -3.79121118e+03 -3.71272656e+03 -3.85708008e+03 -4.03533179e+03 -3.99135742e+03 -4.01789087e+03 -4.03848560e+03 -4.06896655e+03 -4.21065381e+03 -4.19591992e+03 -4.20080029e+03 -4.39201855e+03 -4.34881250e+03 -4.36654004e+03 -4.45203320e+03 -4.41688525e+03 -4.47052686e+03 -4.58078076e+03 -4.73194775e+03 -4.63911133e+03 -4.52689893e+03 -4.61913086e+03 -4.77898145e+03 -4.89979297e+03 -4.87515039e+03 -4.80544678e+03 -4.79128564e+03 -4.93017432e+03 -5.16636133e+03 -5.15014600e+03 -5.10126611e+03 -5.14882568e+03 -5.10291748e+03 -5.21573438e+03 -5.26895947e+03 -5.24206982e+03 -5.31830908e+03 -5.38220068e+03 -5.44858350e+03 -5.28233350e+03 -5.39187207e+03 -5.65849414e+03 -5.61607666e+03 -5.84348682e+03 -5.69345361e+03 -5.31806445e+03 -5.42203857e+03 -5.73060693e+03 -6.06420410e+03 -6.16052588e+03 -5.77206982e+03 -5.46653467e+03 -5.69217090e+03 -6.04076855e+03 -6.09029834e+03 -6.11285547e+03 -6.16144824e+03 -5.93099316e+03 -5.85424805e+03 -6.05740186e+03 -6.22155225e+03 -6.43287598e+03 -6.54507568e+03 -6.38035254e+03 -6.06263281e+03 -5.92808838e+03 -6.14213379e+03 -6.40057031e+03 -6.58393652e+03 -6.80109521e+03 -6.40897607e+03 -6.10593359e+03 -6.50001123e+03 -6.85081201e+03 -6.70188867e+03 -6.62920898e+03 -6.64422900e+03 -6.47468018e+03
    2.52134546e+03 2.50261548e+03 2.56792627e+03 2.49518628e+03 2.38349243e+03 2.24885303e+03 2.24542993e+03 2.28207617e+03 2.17205469e+03 2.14199805e+03 2.08529248e+03 2.01023730e+03 2.01108411e+03 1.94157117e+03 1.86634387e+03 1.83240723e+03 1.80741638e+03 1.74128333e+03 1.63531543e+03 1.58279810e+03 1.56002576e+03 1.54031995e+03 1.51397852e+03 1.42566919e+03 1.35713403e+03 1.30235217e+03 1.25878284e+03 1.23033777e+03 1.16492334e+03 1.09839905e+03 1.03145044e+03 9.97753967e+02 9.61819824e+02 9.02771240e+02 8.50449585e+02 7.88606567e+02 7.41589050e+02 6.82229736e+02 6.16687378e+02 5.76155579e+02 5.33416992e+02 4.79516602e+02 4.28254578e+02 3.65696411e+02 3.10061432e+02 2.62863190e+02 2.11867935e+02 1.61002274e+02 1.05301476e+02 5.02657738e+01 -2.13790035e+00 -5.53675804e+01 -1.10641571e+02 -1.63735992e+02 -2.12939957e+02 -2.60248993e+02 -3.20259125e+02 -3.69232758e+02 -4.06855347e+02 -4.68316437e+02 -5.35735657e+02 -5.98285400e+02 -6.47203491e+02 -6.69148010e+02 -7.26599731e+02 -8.07972107e+02 -8.67729004e+02 -9.19012146e+02 -9.28534424e+02 -9.70342407e+02 -1.05317517e+03 -1.11881262e+03 -1.18688867e+03 -1.22094092e+03 -1.24790137e+03 -1.29310669e+03 -1.37866333e+03 -1.46681995e+03 -1.48294189e+03 -1.51539038e+03 -1.57317480e+03 -1.60720959e+03 -1.65127942e+03 -1.71461560e+03 -1.77901318e+03 -1.86339355e+03 -1.93074084e+03 -1.91355457e+03 -1.89914270e+03 -2.02193762e+03 -2.12764502e+03 -2.17972388e+03 -2.23372803e+03 -2.22186475e+03 -2.27672241e+03 -2.29130835e+03 -2.38567993e+03 -2.52907520e+03 -2.47488940e+03 -2.53180493e+03 -2.58039746e+03 -2.53796167e+03 -2.64677368e+03 -2.86312598e+03 -2.89711353e+03 -2.79093115e+03 -2.86695312e+03 -2.91417603e+03 -2.86484473e+03 -2.98365771e+03 -3.11734253e+03 -3.16437280e+03 -3.19400317e+03 -3.18488550e+03 -3.27370703e+03 -3.35272681e+03 -3.42017017e+03 -3.58535522e+03 -3.57605493e+03 -3.40406787e+03 -3.39114185e+03 -3.59292334e+03 -3.71820850e+03 -3.72004761e+03 -3.75231250e+03 -3.70129297e+03 -3.81422437e+03 -3.98661157e+03 -3.93285376e+03 -3.96093799e+03 -3.97315137e+03 -4.03801733e+03 -4.19117773e+03 -4.12201562e+03 -4.14199756e+03 -4.32398926e+03 -4.34743164e+03 -4.35175293e+03 -4.34763184e+03 -4.30121240e+03 -4.40935596e+03 -4.57483398e+03 -4.67696924e+03 -4.59939941e+03 -4.50987793e+03 -4.55097363e+03 -4.72273535e+03 -4.81479980e+03 -4.78163672e+03 -4.82217236e+03 -4.74319727e+03 -4.81062598e+03 -5.05292236e+03 -5.10468848e+03 -5.06819727e+03 -5.06648926e+03 -5.14338867e+03 -5.13714111e+03 -5.06979688e+03 -5.14116309e+03 -5.27331738e+03 -5.37540381e+03 -5.47976953e+03 -5.26744580e+03 -5.20212988e+03 -5.45512500e+03 -5.63093652e+03 -5.76704688e+03 -5.65623926e+03 -5.44339844e+03 -5.30669922e+03 -5.57475781e+03 -6.04293506e+03 -6.00391260e+03 -5.71255615e+03 -5.55332666e+03 -5.66568799e+03 -5.75190918e+03 -5.80759473e+03 -6.03177783e+03 -6.24351514e+03 -6.07280957e+03 -5.81713867e+03 -5.77733789e+03 -5.95730273e+03 -6.32942139e+03 -6.53955811e+03 -6.36259961e+03 -5.96022070e+03 -5.77605518e+03 -6.05328613e+03 -6.43205420e+03 -6.69694678e+03 -6.68454541e+03 -6.26256494e+03 -5.98531689e+03 -6.37785449e+03 -6.76337793e+03 -6.58050977e+03 -6.66116357e+03 -6.60632178e+03 -6.34662158e+03
    2.39262158e+03 2.36025366e+03 2.39796680e+03 2.40558765e+03 2.26700073e+03 2.11254248e+03 2.11262695e+03 2.13045483e+03 2.06089526e+03 2.04586353e+03 2.00753821e+03 1.90756812e+03 1.88000647e+03 1.85315356e+03 1.77788745e+03 1.72379492e+03 1.67557092e+03 1.63669495e+03 1.57979517e+03 1.50980029e+03 1.47476843e+03 1.45848962e+03 1.43753809e+03 1.34906848e+03 1.26622498e+03 1.22621423e+03 1.19576697e+03 1.16158252e+03 1.10625098e+03 1.03859094e+03 9.76413574e+02 9.47049011e+02 9.10860413e+02 8.54707886e+02 8.01839966e+02 7.47346802e+02 6.89803467e+02 6.35723633e+02 5.88901611e+02 5.54502380e+02 5.07441345e+02 4.50401672e+02 4.00690277e+02 3.39464630e+02 2.96019653e+02 2.53220520e+02 1.99411392e+02 1.53622849e+02 9.95483551e+01 4.63251305e+01 -1.89709115e+00 -5.25656281e+01 -1.04976898e+02 -1.57626984e+02 -2.01610962e+02 -2.41817581e+02 -2.96823059e+02 -3.48981171e+02 -3.93458710e+02 -4.51072113e+02 -5.09185181e+02 -5.55036499e+02 -6.01588806e+02 -6.41502686e+02 -7.00210571e+02 -7.65820496e+02 -8.11242798e+02 -8.62222717e+02 -8.78345215e+02 -9.17148682e+02 -9.96966980e+02 -1.05058215e+03 -1.12069385e+03 -1.16826111e+03 -1.17225366e+03 -1.21692383e+03 -1.30372571e+03 -1.38936841e+03 -1.41625354e+03 -1.43677258e+03 -1.48285425e+03 -1.49308252e+03 -1.57412830e+03 -1.66107373e+03 -1.68188770e+03 -1.74294324e+03 -1.77436218e+03 -1.78926746e+03 -1.82941138e+03 -1.95562500e+03 -2.02950208e+03 -2.03419922e+03 -2.09375415e+03 -2.08231323e+03 -2.15415723e+03 -2.22427612e+03 -2.25979736e+03 -2.37424829e+03 -2.33897559e+03 -2.34326562e+03 -2.42557788e+03 -2.45089185e+03 -2.55800928e+03 -2.73133423e+03 -2.74837329e+03 -2.63120068e+03 -2.64072900e+03 -2.72239355e+03 -2.75858105e+03 -2.86728857e+03 -2.97491699e+03 -2.95333423e+03 -2.96873657e+03 -3.02696729e+03 -3.13198828e+03 -3.19889673e+03 -3.20747681e+03 -3.34536865e+03 -3.35071240e+03 -3.21333179e+03 -3.24942773e+03 -3.41677319e+03 -3.50715991e+03 -3.55471411e+03 -3.54675610e+03 -3.47238184e+03 -3.60905420e+03 -3.77575269e+03 -3.73336499e+03 -3.73360596e+03 -3.78280444e+03 -3.80016016e+03 -3.92277515e+03 -3.93057739e+03 -3.92292603e+03 -4.09103320e+03 -4.07502979e+03 -4.07908594e+03 -4.16100244e+03 -4.12260742e+03 -4.17741602e+03 -4.27737939e+03 -4.41905566e+03 -4.33475244e+03 -4.22347217e+03 -4.32335449e+03 -4.46349316e+03 -4.58101855e+03 -4.55771533e+03 -4.49206055e+03 -4.46199951e+03 -4.60223828e+03 -4.83500586e+03 -4.82635889e+03 -4.76342969e+03 -4.82187451e+03 -4.76117334e+03 -4.84884814e+03 -4.93274902e+03 -4.89045947e+03 -4.96485889e+03 -5.03750146e+03 -5.10441699e+03 -4.93412988e+03 -5.00666895e+03 -5.25306055e+03 -5.26413379e+03 -5.46490332e+03 -5.31780713e+03 -5.02636377e+03 -5.02795166e+03 -5.28310205e+03 -5.69465576e+03 -5.75372852e+03 -5.35993994e+03 -5.11895410e+03 -5.33372900e+03 -5.60918604e+03 -5.68609912e+03 -5.76495410e+03 -5.72002734e+03 -5.50708789e+03 -5.50907861e+03 -5.63450146e+03 -5.79930908e+03 -6.02746338e+03 -6.06147510e+03 -5.97843066e+03 -5.67557031e+03 -5.52426025e+03 -5.75621191e+03 -5.99357764e+03 -6.18676367e+03 -6.31118799e+03 -5.92785840e+03 -5.72981445e+03 -6.06838770e+03 -6.37371045e+03 -6.26088672e+03 -6.20712109e+03 -6.21195752e+03 -6.01877490e+03
    2.33300928e+03 2.31561865e+03 2.38411157e+03 2.31745239e+03 2.20794312e+03 2.08497461e+03 2.08681763e+03 2.11321094e+03 2.01458887e+03 1.99169226e+03 1.93087207e+03 1.86258948e+03 1.86777893e+03 1.80089978e+03 1.73121619e+03 1.69782764e+03 1.67722205e+03 1.61670618e+03 1.51659961e+03 1.46887146e+03 1.44572705e+03 1.42708044e+03 1.40202258e+03 1.32123047e+03 1.26173035e+03 1.20665442e+03 1.16556897e+03 1.14237769e+03 1.08013428e+03 1.01724194e+03 9.57591431e+02 9.26725952e+02 8.92910400e+02 8.37498535e+02 7.88508057e+02 7.31097839e+02 6.86194275e+02 6.32731323e+02 5.71704895e+02 5.34555542e+02 4.95139740e+02 4.45235596e+02 3.97588074e+02 3.38253479e+02 2.87553284e+02 2.44505371e+02 1.96739502e+02 1.49649445e+02 9.77698517e+01 4.69612503e+01 -1.83936226e+00 -5.13932877e+01 -1.03027222e+02 -1.51939285e+02 -1.97199799e+02 -2.41598618e+02 -2.97202026e+02 -3.42781464e+02 -3.77185944e+02 -4.33639496e+02 -4.96741913e+02 -5.55952148e+02 -6.00808105e+02 -6.19658691e+02 -6.74349915e+02 -7.48852173e+02 -8.04403137e+02 -8.53349670e+02 -8.62257141e+02 -9.01365234e+02 -9.74655884e+02 -1.03778394e+03 -1.10193396e+03 -1.13169739e+03 -1.15584302e+03 -1.19756421e+03 -1.28063184e+03 -1.35946704e+03 -1.37541931e+03 -1.40827966e+03 -1.45468494e+03 -1.49133252e+03 -1.53570532e+03 -1.58741101e+03 -1.65235681e+03 -1.72951758e+03 -1.78846753e+03 -1.77391064e+03 -1.76088745e+03 -1.87895801e+03 -1.97176624e+03 -2.01925647e+03 -2.07424463e+03 -2.06352930e+03 -2.11207251e+03 -2.12109985e+03 -2.20925610e+03 -2.34475586e+03 -2.29757861e+03 -2.35528223e+03 -2.39561646e+03 -2.34524829e+03 -2.45426978e+03 -2.66185596e+03 -2.68664893e+03 -2.59400391e+03 -2.65999683e+03 -2.69093115e+03 -2.65829199e+03 -2.77085669e+03 -2.88286694e+03 -2.93091187e+03 -2.96526221e+03 -2.95995142e+03 -3.03744507e+03 -3.10894287e+03 -3.16906519e+03 -3.32518359e+03 -3.31728979e+03 -3.16595483e+03 -3.14462817e+03 -3.32692505e+03 -3.44033276e+03 -3.44768262e+03 -3.47756885e+03 -3.43376440e+03 -3.54258984e+03 -3.69851929e+03 -3.64851562e+03 -3.66246265e+03 -3.68114307e+03 -3.74267407e+03 -3.88239990e+03 -3.82678467e+03 -3.83573804e+03 -4.00344238e+03 -4.04493066e+03 -4.02564307e+03 -4.02558887e+03 -3.99699121e+03 -4.09321069e+03 -4.23287061e+03 -4.32747900e+03 -4.27060107e+03 -4.17154785e+03 -4.21665332e+03 -4.38766309e+03 -4.46394434e+03 -4.44074805e+03 -4.46981836e+03 -4.40325391e+03 -4.48331543e+03 -4.68358740e+03 -4.73761426e+03 -4.70777441e+03 -4.70449023e+03 -4.76018457e+03 -4.75828223e+03 -4.71558350e+03 -4.77951660e+03 -4.88096289e+03 -4.99287207e+03 -5.08369727e+03 -4.88286084e+03 -4.80949072e+03 -5.04330029e+03 -5.23416260e+03 -5.33815527e+03 -5.24623438e+03 -5.06174365e+03 -4.92161133e+03 -5.17776221e+03 -5.62580811e+03 -5.57393652e+03 -5.27350293e+03 -5.14452930e+03 -5.24501172e+03 -5.28286865e+03 -5.40942871e+03 -5.69832910e+03 -5.73988086e+03 -5.56142139e+03 -5.44234863e+03 -5.37101465e+03 -5.52914941e+03 -5.88554980e+03 -5.99314355e+03 -5.90581445e+03 -5.59781494e+03 -5.33856885e+03 -5.64011963e+03 -5.97602393e+03 -6.21732324e+03 -6.17078125e+03 -5.76007568e+03 -5.56801953e+03 -5.91679395e+03 -6.26442285e+03 -6.12588672e+03 -6.16565088e+03 -6.11534082e+03 -5.89510254e+03
    2.32277563e+03 2.28563379e+03 2.32747925e+03 2.34202734e+03 2.20426904e+03 2.05081812e+03 2.05237329e+03 2.06867480e+03 2.00495508e+03 1.99410425e+03 1.94591711e+03 1.85051318e+03 1.83059692e+03 1.79957776e+03 1.72358716e+03 1.67493945e+03 1.62879358e+03 1.58994006e+03 1.53128711e+03 1.46686987e+03 1.43416748e+03 1.41569824e+03 1.39565393e+03 1.31056787e+03 1.23061353e+03 1.18910413e+03 1.16138660e+03 1.13120361e+03 1.07315039e+03 1.00847058e+03 9.50681458e+02 9.17750732e+02 8.84570740e+02 8.31401978e+02 7.77862488e+02 7.25880554e+02 6.69767944e+02 6.17557861e+02 5.71963440e+02 5.38763184e+02 4.94106720e+02 4.37804352e+02 3.88962036e+02 3.29508698e+02 2.87304474e+02 2.46669937e+02 1.93967148e+02 1.49171906e+02 9.62710190e+01 4.49480171e+01 -1.77523065e+00 -5.07042618e+01 -1.01993042e+02 -1.53363510e+02 -1.95998917e+02 -2.34335327e+02 -2.88288757e+02 -3.39689606e+02 -3.81242462e+02 -4.37719604e+02 -4.95172852e+02 -5.38853088e+02 -5.84632263e+02 -6.23767822e+02 -6.79954529e+02 -7.43622986e+02 -7.88124573e+02 -8.37616455e+02 -8.54536682e+02 -8.92489319e+02 -9.67468262e+02 -1.02099579e+03 -1.08884229e+03 -1.13585828e+03 -1.13799329e+03 -1.17858130e+03 -1.26833606e+03 -1.34895129e+03 -1.37607275e+03 -1.39970618e+03 -1.43941370e+03 -1.45127979e+03 -1.52764587e+03 -1.61161646e+03 -1.63432324e+03 -1.69253906e+03 -1.72349829e+03 -1.73721350e+03 -1.78030505e+03 -1.90082434e+03 -1.97147839e+03 -1.97581799e+03 -2.02967505e+03 -2.02448303e+03 -2.09458325e+03 -2.15875073e+03 -2.19180664e+03 -2.30744556e+03 -2.27367529e+03 -2.27950977e+03 -2.36543994e+03 -2.37545850e+03 -2.48307593e+03 -2.65432080e+03 -2.66529688e+03 -2.55780786e+03 -2.56611865e+03 -2.63889233e+03 -2.68461597e+03 -2.79286475e+03 -2.88355786e+03 -2.86437109e+03 -2.88293018e+03 -2.94388354e+03 -3.04471558e+03 -3.10527075e+03 -3.11359497e+03 -3.24241577e+03 -3.25820850e+03 -3.13020508e+03 -3.15945068e+03 -3.31185889e+03 -3.40726611e+03 -3.45924976e+03 -3.43844873e+03 -3.37091235e+03 -3.51165063e+03 -3.66230859e+03 -3.62035620e+03 -3.62009302e+03 -3.67575562e+03 -3.70129004e+03 -3.81771167e+03 -3.81842944e+03 -3.80281592e+03 -3.97888965e+03 -3.95563672e+03 -3.96108936e+03 -4.04027734e+03 -4.00336572e+03 -4.05941455e+03 -4.15229443e+03 -4.27105273e+03 -4.21375195e+03 -4.09869727e+03 -4.17992236e+03 -4.35738184e+03 -4.46307324e+03 -4.42584912e+03 -4.33983447e+03 -4.34269531e+03 -4.49868359e+03 -4.69225049e+03 -4.67791602e+03 -4.63255469e+03 -4.67396875e+03 -4.61339062e+03 -4.70664648e+03 -4.78144580e+03 -4.74932715e+03 -4.83436035e+03 -4.88483789e+03 -4.94543506e+03 -4.78929785e+03 -4.86373535e+03 -5.10578662e+03 -5.10823096e+03 -5.30646191e+03 -5.16591650e+03 -4.85093750e+03 -4.90090918e+03 -5.18597217e+03 -5.52503467e+03 -5.58517529e+03 -5.20831494e+03 -4.98308545e+03 -5.14877100e+03 -5.40777393e+03 -5.53931494e+03 -5.64366309e+03 -5.54523291e+03 -5.31687744e+03 -5.35204785e+03 -5.47012793e+03 -5.64904395e+03 -5.84150830e+03 -5.83068896e+03 -5.80714844e+03 -5.59407959e+03 -5.36676318e+03 -5.62333643e+03 -5.81395166e+03 -5.99415918e+03 -6.12271826e+03 -5.74217676e+03 -5.58791455e+03 -5.87902734e+03 -6.18710693e+03 -6.09508643e+03 -6.01426953e+03 -6.00824365e+03 -5.86426465e+03
    2.34815039e+03 2.29755127e+03 2.27115039e+03 2.24881226e+03 2.19181177e+03 2.11325049e+03 2.06623315e+03 2.02763428e+03 1.97631018e+03 1.98681152e+03 1.95963049e+03 1.87075708e+03 1.82785327e+03 1.76350220e+03 1.67732373e+03 1.66477991e+03 1.65668933e+03 1.58401831e+03 1.51948120e+03 1.46481909e+03 1.40981799e+03 1.39173401e+03 1.36525012e+03 1.29426611e+03 1.24351526e+03 1.20734753e+03 1.15668311e+03 1.10639966e+03 1.05314197e+03 1.00421027e+03 9.62753601e+02 9.24609680e+02 8.71836731e+02 8.08733643e+02 7.61747192e+02 7.20036255e+02 6.72569763e+02 6.17099487e+02 5.67962402e+02 5.27508179e+02 4.85015381e+02 4.37855988e+02 3.85447601e+02 3.28383636e+02 2.79038300e+02 2.37731537e+02 1.90119522e+02 1.43376205e+02 9.27390976e+01 4.25411224e+01 -3.00609970e+00 -5.13622665e+01 -9.98266602e+01 -1.52146591e+02 -1.99543686e+02 -2.42679718e+02 -2.96510956e+02 -3.42399506e+02 -3.76173828e+02 -4.29317322e+02 -4.88273621e+02 -5.34596863e+02 -5.81203857e+02 -6.19919739e+02 -6.63730957e+02 -7.24929077e+02 -7.85585144e+02 -8.35828552e+02 -8.60120117e+02 -9.04459900e+02 -9.62955078e+02 -1.00163275e+03 -1.06924268e+03 -1.12445532e+03 -1.15054773e+03 -1.20543958e+03 -1.27149634e+03 -1.30408960e+03 -1.34443005e+03 -1.41262622e+03 -1.46499585e+03 -1.48388245e+03 -1.50623792e+03 -1.55115234e+03 -1.61075964e+03 -1.69758057e+03 -1.74938025e+03 -1.75168823e+03 -1.77426624e+03 -1.85398169e+03 -1.93859644e+03 -1.98565820e+03 -1.99982166e+03 -2.01685193e+03 -2.11075098e+03 -2.14946436e+03 -2.16243750e+03 -2.26489307e+03 -2.28315625e+03 -2.31162476e+03 -2.39068384e+03 -2.36189233e+03 -2.39178687e+03 -2.55487549e+03 -2.61680322e+03 -2.59188770e+03 -2.65509717e+03 -2.68196558e+03 -2.62943262e+03 -2.67962305e+03 -2.81049487e+03 -2.87588867e+03 -2.91756274e+03 -2.94967188e+03 -2.97181372e+03 -3.02555664e+03 -3.08355835e+03 -3.25152490e+03 -3.28005054e+03 -3.14309033e+03 -3.16336621e+03 -3.25647095e+03 -3.34587524e+03 -3.41916138e+03 -3.41620972e+03 -3.41735840e+03 -3.52334937e+03 -3.58792676e+03 -3.58734302e+03 -3.62012622e+03 -3.67113892e+03 -3.69469775e+03 -3.80803540e+03 -3.84253882e+03 -3.77001831e+03 -3.91238135e+03 -3.96591992e+03 -3.95933887e+03 -4.01354883e+03 -3.95872241e+03 -3.99626489e+03 -4.13021631e+03 -4.25268652e+03 -4.23167334e+03 -4.11855225e+03 -4.19059033e+03 -4.36293213e+03 -4.37618262e+03 -4.34823730e+03 -4.38685059e+03 -4.40142334e+03 -4.49243408e+03 -4.59563379e+03 -4.59968555e+03 -4.60358057e+03 -4.67489893e+03 -4.68836475e+03 -4.66632227e+03 -4.69582031e+03 -4.72352734e+03 -4.80362891e+03 -4.84563477e+03 -4.95673584e+03 -4.90699756e+03 -4.81310498e+03 -4.95762207e+03 -5.08955811e+03 -5.23888477e+03 -5.16730811e+03 -4.95226953e+03 -5.00192383e+03 -5.14364209e+03 -5.35505420e+03 -5.44778271e+03 -5.23807031e+03 -5.14590674e+03 -5.23431006e+03 -5.25774414e+03 -5.30090527e+03 -5.55125391e+03 -5.68129443e+03 -5.45594727e+03 -5.36645898e+03 -5.39000635e+03 -5.42690527e+03 -5.72796826e+03 -5.80810059e+03 -5.73843506e+03 -5.60592627e+03 -5.41533105e+03 -5.61547168e+03 -5.71932422e+03 -5.94681152e+03 -6.09189160e+03 -5.77620361e+03 -5.69491504e+03 -5.85173779e+03 -5.89568848e+03 -5.91979102e+03 -6.06632080e+03 -6.16652344e+03 -5.96537695e+03
    2.33754321e+03 2.29224365e+03 2.26395312e+03 2.24223169e+03 2.18824146e+03 2.10639746e+03 2.05685083e+03 2.02351660e+03 1.97568384e+03 1.98613708e+03 1.94947656e+03 1.85506812e+03 1.81318091e+03 1.74994373e+03 1.66583887e+03 1.65505835e+03 1.65327258e+03 1.58010498e+03 1.51340710e+03 1.45540332e+03 1.39830786e+03 1.38326648e+03 1.35785815e+03 1.28665637e+03 1.23870886e+03 1.20204114e+03 1.15130066e+03 1.10095044e+03 1.05001379e+03 1.00159705e+03 9.55261169e+02 9.17506104e+02 8.63035522e+02 8.01829163e+02 7.59059204e+02 7.18263062e+02 6.72888123e+02 6.20289124e+02 5.72036316e+02 5.26229309e+02 4.80501282e+02 4.32952789e+02 3.84946350e+02 3.33207184e+02 2.84399841e+02 2.40586426e+02 1.90293640e+02 1.41741150e+02 9.23780212e+01 4.48717499e+01 8.17058921e-01 -4.67592659e+01 -9.76924210e+01 -1.50316406e+02 -1.98315628e+02 -2.40145615e+02 -2.88378479e+02 -3.33907959e+02 -3.71320892e+02 -4.32171722e+02 -4.96642639e+02 -5.38395874e+02 -5.79352966e+02 -6.17117371e+02 -6.65241089e+02 -7.29721924e+02 -7.85502441e+02 -8.31356750e+02 -8.54435059e+02 -9.00460327e+02 -9.61879272e+02 -9.97330688e+02 -1.05912024e+03 -1.11196948e+03 -1.14264185e+03 -1.20105127e+03 -1.26568335e+03 -1.29880725e+03 -1.33244507e+03 -1.40351074e+03 -1.46101770e+03 -1.47781165e+03 -1.50257422e+03 -1.54989465e+03 -1.61029871e+03 -1.69279333e+03 -1.73871472e+03 -1.73805054e+03 -1.76062585e+03 -1.84532727e+03 -1.93614087e+03 -1.98427722e+03 -1.99196204e+03 -2.00105908e+03 -2.09297656e+03 -2.14251538e+03 -2.16047656e+03 -2.26369263e+03 -2.27298804e+03 -2.29448975e+03 -2.37680054e+03 -2.35342358e+03 -2.38869263e+03 -2.55276440e+03 -2.61673901e+03 -2.58767188e+03 -2.65197534e+03 -2.67645386e+03 -2.61940894e+03 -2.67223438e+03 -2.81559595e+03 -2.87426831e+03 -2.90683813e+03 -2.94127637e+03 -2.96973413e+03 -3.01743945e+03 -3.07792334e+03 -3.23983008e+03 -3.25737207e+03 -3.12156250e+03 -3.14950562e+03 -3.25064844e+03 -3.33241772e+03 -3.40983667e+03 -3.40806958e+03 -3.40686914e+03 -3.50957104e+03 -3.58159229e+03 -3.56357422e+03 -3.60469922e+03 -3.66814307e+03 -3.68383008e+03 -3.79375586e+03 -3.82051831e+03 -3.76134497e+03 -3.89003516e+03 -3.95528125e+03 -3.95547559e+03 -3.99511084e+03 -3.94171387e+03 -3.99639917e+03 -4.12419043e+03 -4.24549658e+03 -4.22522900e+03 -4.10673438e+03 -4.16808984e+03 -4.34289795e+03 -4.35531055e+03 -4.33980029e+03 -4.37281982e+03 -4.39007568e+03 -4.47666748e+03 -4.58436377e+03 -4.57487109e+03 -4.58333350e+03 -4.66813672e+03 -4.66404541e+03 -4.64834326e+03 -4.68112500e+03 -4.70251367e+03 -4.79526855e+03 -4.83404639e+03 -4.93838379e+03 -4.88038965e+03 -4.79413965e+03 -4.94169873e+03 -5.08183887e+03 -5.23370312e+03 -5.14561914e+03 -4.89744971e+03 -4.98025439e+03 -5.12972070e+03 -5.32604883e+03 -5.41290234e+03 -5.21302246e+03 -5.12524561e+03 -5.22631055e+03 -5.26703418e+03 -5.26372363e+03 -5.48573242e+03 -5.69382568e+03 -5.48320752e+03 -5.34698779e+03 -5.35127441e+03 -5.39078711e+03 -5.69836377e+03 -5.81837549e+03 -5.71763574e+03 -5.55621240e+03 -5.40458936e+03 -5.58535400e+03 -5.70851758e+03 -5.94835742e+03 -6.07009912e+03 -5.73584473e+03 -5.68621973e+03 -5.84766699e+03 -5.89986963e+03 -5.89096680e+03 -6.04082568e+03 -6.14857031e+03 -5.93616211e+03
    2.32976343e+03 2.28011255e+03 2.24918677e+03 2.23766260e+03 2.18928320e+03 2.10132373e+03 2.04837329e+03 2.01059302e+03 1.96344165e+03 1.97619031e+03 1.94144556e+03 1.84731250e+03 1.80661365e+03 1.74340698e+03 1.66411707e+03 1.65739893e+03 1.64985474e+03 1.57498438e+03 1.51062219e+03 1.45273865e+03 1.39662439e+03 1.38622412e+03 1.36659753e+03 1.29828833e+03 1.24797083e+03 1.20283374e+03 1.15040149e+03 1.10337024e+03 1.05613916e+03 1.00661609e+03 9.58755859e+02 9.19829163e+02 8.64774353e+02 8.07039734e+02 7.70093079e+02 7.31066223e+02 6.79231812e+02 6.21273560e+02 5.69308472e+02 5.29067993e+02 4.86353729e+02 4.41784576e+02 3.90367462e+02 3.31690460e+02 2.84564453e+02 2.42411545e+02 1.97874069e+02 1.52680298e+02 1.02076004e+02 4.93247337e+01 -3.23282671e+00 -5.36231842e+01 -9.93040314e+01 -1.42613037e+02 -1.86621384e+02 -2.32579971e+02 -2.91382935e+02 -3.41741394e+02 -3.77331696e+02 -4.31330536e+02 -4.91612183e+02 -5.37651123e+02 -5.82696411e+02 -6.21185486e+02 -6.63815063e+02 -7.21210083e+02 -7.75280334e+02 -8.25511047e+02 -8.51546021e+02 -8.98965393e+02 -9.62785828e+02 -9.99583008e+02 -1.05642065e+03 -1.10425171e+03 -1.13527429e+03 -1.19859827e+03 -1.27013831e+03 -1.29907507e+03 -1.32874243e+03 -1.39317151e+03 -1.45292688e+03 -1.48127124e+03 -1.50791541e+03 -1.55164014e+03 -1.60400146e+03 -1.68433167e+03 -1.73894385e+03 -1.74447180e+03 -1.76884192e+03 -1.84906641e+03 -1.93089124e+03 -1.97604150e+03 -1.99151306e+03 -1.99955994e+03 -2.09192969e+03 -2.14241675e+03 -2.15717700e+03 -2.25322217e+03 -2.27044897e+03 -2.29798755e+03 -2.38733569e+03 -2.35829419e+03 -2.38046875e+03 -2.54611328e+03 -2.59998730e+03 -2.57209033e+03 -2.64638818e+03 -2.68147998e+03 -2.62525024e+03 -2.66598364e+03 -2.80307544e+03 -2.86280273e+03 -2.89899561e+03 -2.93178442e+03 -2.96006958e+03 -3.01687549e+03 -3.06034180e+03 -3.21805908e+03 -3.24828101e+03 -3.11285181e+03 -3.14819604e+03 -3.24705908e+03 -3.31889380e+03 -3.38172217e+03 -3.39702417e+03 -3.40002344e+03 -3.49086279e+03 -3.55718701e+03 -3.56813232e+03 -3.59649292e+03 -3.64156372e+03 -3.66728687e+03 -3.78614648e+03 -3.80653442e+03 -3.74838477e+03 -3.88416333e+03 -3.95062549e+03 -3.94376074e+03 -3.97500757e+03 -3.93398438e+03 -3.97891821e+03 -4.10205176e+03 -4.23768457e+03 -4.20992773e+03 -4.08982935e+03 -4.16148633e+03 -4.33684717e+03 -4.34182031e+03 -4.33562305e+03 -4.36074316e+03 -4.35419775e+03 -4.48037891e+03 -4.58078125e+03 -4.57293066e+03 -4.56393115e+03 -4.64175146e+03 -4.65627539e+03 -4.64569238e+03 -4.67597168e+03 -4.69255371e+03 -4.77537158e+03 -4.82268799e+03 -4.92736621e+03 -4.87630176e+03 -4.78746631e+03 -4.92880078e+03 -5.07237109e+03 -5.22347607e+03 -5.13040625e+03 -4.90412354e+03 -4.97359863e+03 -5.13026221e+03 -5.32723486e+03 -5.41909131e+03 -5.19748535e+03 -5.11008203e+03 -5.21712451e+03 -5.27900098e+03 -5.26611377e+03 -5.46487939e+03 -5.66367188e+03 -5.47925049e+03 -5.35337158e+03 -5.35201318e+03 -5.40172070e+03 -5.69271436e+03 -5.80536719e+03 -5.71984131e+03 -5.54080029e+03 -5.39637207e+03 -5.58383887e+03 -5.70052441e+03 -5.92353711e+03 -6.07283691e+03 -5.71396143e+03 -5.67549023e+03 -5.82878613e+03 -5.88064502e+03 -5.87749902e+03 -6.02981494e+03 -6.14271533e+03 -5.92541357e+03
    2.31692603e+03 2.27521216e+03 2.27448315e+03 2.27065771e+03 2.19418164e+03 2.06203125e+03 2.04771570e+03 2.03895764e+03 1.98262952e+03 1.96864319e+03 1.89128613e+03 1.82063147e+03 1.83083887e+03 1.78748987e+03 1.71584570e+03 1.66696997e+03 1.61233972e+03 1.56806335e+03 1.51772107e+03 1.46736047e+03 1.43008630e+03 1.40133875e+03 1.35908777e+03 1.29564490e+03 1.24274280e+03 1.19063782e+03 1.15113977e+03 1.11806580e+03 1.05831726e+03 9.85101990e+02 9.46861023e+02 9.23710144e+02 8.76814697e+02 8.36210754e+02 7.77912598e+02 7.04242737e+02 6.56952332e+02 6.15555542e+02 5.70994751e+02 5.43736938e+02 4.93766846e+02 4.30574280e+02 3.81012909e+02 3.29630951e+02 2.87076843e+02 2.44865341e+02 1.94417313e+02 1.44966934e+02 9.51139603e+01 4.54007912e+01 -6.43343568e-01 -4.87679520e+01 -9.91184769e+01 -1.49892136e+02 -1.98055771e+02 -2.39472397e+02 -2.94705688e+02 -3.43500092e+02 -3.82058136e+02 -4.30163330e+02 -4.74885437e+02 -5.27834045e+02 -5.85320190e+02 -6.23883789e+02 -6.75874878e+02 -7.25479919e+02 -7.56429688e+02 -8.00483337e+02 -8.52395447e+02 -9.03885559e+02 -9.51503540e+02 -1.00800006e+03 -1.05780432e+03 -1.09857190e+03 -1.13825269e+03 -1.18707458e+03 -1.25729370e+03 -1.32852393e+03 -1.36357031e+03 -1.36984912e+03 -1.41353223e+03 -1.46230884e+03 -1.51809033e+03 -1.59186707e+03 -1.62802368e+03 -1.66567773e+03 -1.72067908e+03 -1.74978369e+03 -1.78334509e+03 -1.86934985e+03 -1.92130750e+03 -1.96120691e+03 -1.99109741e+03 -2.01265515e+03 -2.08924878e+03 -2.09398950e+03 -2.15022363e+03 -2.27119556e+03 -2.26028418e+03 -2.28948047e+03 -2.36833691e+03 -2.36804297e+03 -2.40660132e+03 -2.56595581e+03 -2.61853687e+03 -2.53062476e+03 -2.57357373e+03 -2.64674683e+03 -2.65981494e+03 -2.75664722e+03 -2.81685376e+03 -2.80854370e+03 -2.86203979e+03 -2.92544189e+03 -3.01232837e+03 -3.05683911e+03 -3.05003638e+03 -3.14038428e+03 -3.18606836e+03 -3.11613647e+03 -3.15796143e+03 -3.30528271e+03 -3.32961353e+03 -3.35524487e+03 -3.40947314e+03 -3.38256689e+03 -3.45129492e+03 -3.58904541e+03 -3.62215796e+03 -3.58968921e+03 -3.56222388e+03 -3.64849658e+03 -3.80782422e+03 -3.80593555e+03 -3.79444702e+03 -3.84199072e+03 -3.83112988e+03 -3.93615771e+03 -4.03208374e+03 -3.93753003e+03 -3.98113916e+03 -4.12013721e+03 -4.14872070e+03 -4.13211865e+03 -4.11014355e+03 -4.17485938e+03 -4.30784766e+03 -4.37691357e+03 -4.34984229e+03 -4.27682324e+03 -4.30025439e+03 -4.43960986e+03 -4.62992188e+03 -4.73048682e+03 -4.59228467e+03 -4.47384717e+03 -4.54994336e+03 -4.65048438e+03 -4.74547461e+03 -4.74239307e+03 -4.68768652e+03 -4.77110400e+03 -4.91515234e+03 -4.86052246e+03 -4.89748340e+03 -5.03178662e+03 -5.02499902e+03 -5.05564062e+03 -5.01030225e+03 -4.92582812e+03 -4.98883301e+03 -5.19741113e+03 -5.38805811e+03 -5.38872998e+03 -5.12365918e+03 -5.04508740e+03 -5.21621289e+03 -5.23946143e+03 -5.33178516e+03 -5.54540576e+03 -5.50486768e+03 -5.35075732e+03 -5.35630957e+03 -5.41423145e+03 -5.53054395e+03 -5.72245605e+03 -5.77446729e+03 -5.65330762e+03 -5.48921484e+03 -5.39454199e+03 -5.60159277e+03 -5.74131885e+03 -5.89833887e+03 -6.00359033e+03 -5.74212305e+03 -5.62652246e+03 -5.87733057e+03 -6.00666504e+03 -5.91286572e+03 -5.98177881e+03 -5.95526953e+03 -5.82599365e+03
    2.36209473e+03 2.29515479e+03 2.20210059e+03 2.23241113e+03 2.20445264e+03 2.11090015e+03 2.05690747e+03 1.98460437e+03 1.96863953e+03 1.98797778e+03 1.94257874e+03 1.85253894e+03 1.80972583e+03 1.77145776e+03 1.67724170e+03 1.63973157e+03 1.60583984e+03 1.55907922e+03 1.54547681e+03 1.47198340e+03 1.39524695e+03 1.36867383e+03 1.32230627e+03 1.26904541e+03 1.23063098e+03 1.19672510e+03 1.14720996e+03 1.08650464e+03 1.03681470e+03 9.77385864e+02 9.55909973e+02 9.30782959e+02 8.57170349e+02 8.02977112e+02 7.44778809e+02 6.86678223e+02 6.47434509e+02 6.10601562e+02 5.77069336e+02 5.34338745e+02 4.75291260e+02 4.15097778e+02 3.70148804e+02 3.26595795e+02 2.82579895e+02 2.36261551e+02 1.80461304e+02 1.32447174e+02 8.48430481e+01 3.95467377e+01 4.05160934e-01 -4.48874168e+01 -9.62465210e+01 -1.55020172e+02 -2.07015320e+02 -2.45603638e+02 -2.88277191e+02 -3.33291840e+02 -3.79370361e+02 -4.35995514e+02 -4.80755737e+02 -5.17412964e+02 -5.67670959e+02 -6.25364380e+02 -6.81763245e+02 -7.26458740e+02 -7.61551575e+02 -7.99059814e+02 -8.57401001e+02 -9.19158142e+02 -9.57591614e+02 -9.85934265e+02 -1.03922302e+03 -1.10297778e+03 -1.14226599e+03 -1.20732056e+03 -1.25582458e+03 -1.28733911e+03 -1.34633093e+03 -1.39161792e+03 -1.43481519e+03 -1.45018713e+03 -1.49543201e+03 -1.57729749e+03 -1.61912830e+03 -1.65940222e+03 -1.69269226e+03 -1.72653687e+03 -1.79950391e+03 -1.87203967e+03 -1.91914734e+03 -1.95545178e+03 -1.94567981e+03 -1.98255725e+03 -2.10890259e+03 -2.14565796e+03 -2.12796899e+03 -2.21959351e+03 -2.27130786e+03 -2.27067163e+03 -2.37727002e+03 -2.40179077e+03 -2.38129272e+03 -2.51259473e+03 -2.60755762e+03 -2.57188770e+03 -2.59796533e+03 -2.65842749e+03 -2.66626416e+03 -2.70678198e+03 -2.78915112e+03 -2.80540552e+03 -2.85918970e+03 -2.94972510e+03 -2.99185840e+03 -3.03707715e+03 -3.04518018e+03 -3.10833936e+03 -3.16163232e+03 -3.12010815e+03 -3.21555737e+03 -3.28850293e+03 -3.27632764e+03 -3.36792358e+03 -3.40702759e+03 -3.41977246e+03 -3.48083472e+03 -3.54570532e+03 -3.62451514e+03 -3.60614795e+03 -3.59740405e+03 -3.64171362e+03 -3.79344019e+03 -3.87760645e+03 -3.78077441e+03 -3.82538818e+03 -3.82252881e+03 -3.90726978e+03 -4.07675073e+03 -3.97276123e+03 -3.96512671e+03 -4.08143726e+03 -4.13688965e+03 -4.13274414e+03 -4.10554883e+03 -4.21992041e+03 -4.33909424e+03 -4.31667676e+03 -4.32425635e+03 -4.27263770e+03 -4.33272510e+03 -4.48324658e+03 -4.62338232e+03 -4.65536084e+03 -4.54138037e+03 -4.49989746e+03 -4.51710107e+03 -4.63552588e+03 -4.80140039e+03 -4.74582764e+03 -4.64346533e+03 -4.69521777e+03 -4.84845996e+03 -4.91395947e+03 -4.97681104e+03 -5.01476953e+03 -4.96071436e+03 -5.01253125e+03 -5.00010645e+03 -4.93610742e+03 -5.10358936e+03 -5.17160889e+03 -5.20911084e+03 -5.32168799e+03 -5.12847363e+03 -5.09356152e+03 -5.25967041e+03 -5.27306836e+03 -5.30259619e+03 -5.48268750e+03 -5.46270850e+03 -5.28951465e+03 -5.37903760e+03 -5.52659668e+03 -5.48880078e+03 -5.65018555e+03 -5.67303418e+03 -5.56065576e+03 -5.55099268e+03 -5.54607227e+03 -5.64506738e+03 -5.58616553e+03 -5.71153027e+03 -5.98282471e+03 -5.81172803e+03 -5.85597168e+03 -5.91929590e+03 -5.73406836e+03 -5.77562158e+03 -5.95817969e+03 -6.07370752e+03 -5.96797900e+03
    2.33712427e+03 2.28543872e+03 2.22746606e+03 2.19052808e+03 2.19011621e+03 2.12431982e+03 2.05683252e+03 1.99625366e+03 1.95642249e+03 1.95984277e+03 1.89725488e+03 1.83519458e+03 1.81631470e+03 1.74023401e+03 1.65647034e+03 1.63859631e+03 1.63071851e+03 1.56230310e+03 1.50024573e+03 1.44836060e+03 1.38403235e+03 1.36082935e+03 1.31594067e+03 1.27118066e+03 1.25271155e+03 1.19650842e+03 1.13485144e+03 1.08172021e+03 1.03477637e+03 9.82201599e+02 9.53172180e+02 9.21621887e+02 8.47883118e+02 7.99336853e+02 7.49461914e+02 6.92406616e+02 6.69098145e+02 6.29617126e+02 5.73415527e+02 5.21200317e+02 4.66799316e+02 4.18202820e+02 3.81022552e+02 3.37712585e+02 2.84002075e+02 2.32909882e+02 1.85588409e+02 1.40909409e+02 9.65606308e+01 4.78688354e+01 -3.50513029e+00 -5.17046585e+01 -9.56581497e+01 -1.40302689e+02 -1.88523590e+02 -2.36261307e+02 -2.86075836e+02 -3.29350922e+02 -3.72010101e+02 -4.35003967e+02 -4.87792480e+02 -5.32775269e+02 -5.76326294e+02 -6.18709717e+02 -6.79696594e+02 -7.40437561e+02 -7.75456543e+02 -7.98916382e+02 -8.47555054e+02 -9.15677368e+02 -9.63662109e+02 -9.96182922e+02 -1.03565259e+03 -1.07613232e+03 -1.13638660e+03 -1.20683398e+03 -1.25469092e+03 -1.28189941e+03 -1.31877856e+03 -1.37553955e+03 -1.42973157e+03 -1.47313574e+03 -1.48359192e+03 -1.53606104e+03 -1.61777820e+03 -1.67443713e+03 -1.73386816e+03 -1.73979126e+03 -1.76850586e+03 -1.83486365e+03 -1.91206091e+03 -1.98748242e+03 -1.96012134e+03 -1.99908350e+03 -2.10473022e+03 -2.08951416e+03 -2.12639185e+03 -2.22983545e+03 -2.25998389e+03 -2.31918164e+03 -2.39105005e+03 -2.35153174e+03 -2.34329004e+03 -2.49615625e+03 -2.58797266e+03 -2.57564673e+03 -2.67575098e+03 -2.69251318e+03 -2.62328809e+03 -2.67589209e+03 -2.77639136e+03 -2.84508252e+03 -2.90808765e+03 -2.94813672e+03 -2.96190747e+03 -3.01500757e+03 -3.07787793e+03 -3.15222070e+03 -3.18158179e+03 -3.11814331e+03 -3.16267798e+03 -3.25845923e+03 -3.28185400e+03 -3.33139819e+03 -3.40159058e+03 -3.43616333e+03 -3.48682544e+03 -3.53190601e+03 -3.59473242e+03 -3.60327954e+03 -3.57298633e+03 -3.64726929e+03 -3.81868066e+03 -3.85248828e+03 -3.77070166e+03 -3.81326636e+03 -3.85967847e+03 -3.93892432e+03 -4.00531421e+03 -3.91269946e+03 -3.95769995e+03 -4.11041846e+03 -4.15664893e+03 -4.16326660e+03 -4.09788818e+03 -4.18259131e+03 -4.34448535e+03 -4.28190576e+03 -4.29484619e+03 -4.35789893e+03 -4.35350146e+03 -4.42452686e+03 -4.54952295e+03 -4.67109180e+03 -4.59685498e+03 -4.47984717e+03 -4.57063379e+03 -4.61839355e+03 -4.69623486e+03 -4.71694336e+03 -4.62726709e+03 -4.74361816e+03 -4.91681738e+03 -4.95773438e+03 -4.87567773e+03 -4.90393945e+03 -5.00834863e+03 -4.98332129e+03 -5.00467041e+03 -5.03919922e+03 -5.09262158e+03 -5.17518848e+03 -5.24733643e+03 -5.26056934e+03 -5.14443799e+03 -5.22490234e+03 -5.29218408e+03 -5.09940479e+03 -5.13297510e+03 -5.49679199e+03 -5.60914746e+03 -5.46678320e+03 -5.42421143e+03 -5.34529297e+03 -5.31586133e+03 -5.61873828e+03 -5.78333838e+03 -5.57874365e+03 -5.49893994e+03 -5.47272852e+03 -5.59030225e+03 -5.70270752e+03 -5.86231885e+03 -5.97373047e+03 -5.76119580e+03 -5.75526562e+03 -5.87611670e+03 -5.75685254e+03 -5.73607471e+03 -6.04962061e+03 -6.10289014e+03 -5.93535449e+03
    2.31875049e+03 2.27321460e+03 2.24019043e+03 2.22680811e+03 2.18219409e+03 2.09220459e+03 2.03633081e+03 1.99906909e+03 1.95298511e+03 1.96072852e+03 1.93513062e+03 1.84412415e+03 1.79629907e+03 1.73277942e+03 1.65767078e+03 1.65109778e+03 1.64199487e+03 1.56863245e+03 1.49939111e+03 1.44576062e+03 1.39372339e+03 1.38268665e+03 1.36082605e+03 1.29652148e+03 1.24620911e+03 1.19767871e+03 1.14524121e+03 1.09776929e+03 1.05320056e+03 1.00622162e+03 9.57872925e+02 9.14058105e+02 8.59214172e+02 8.06406494e+02 7.69046021e+02 7.30326111e+02 6.78700500e+02 6.18083557e+02 5.64947937e+02 5.28203125e+02 4.87355652e+02 4.42396881e+02 3.90465363e+02 3.30767548e+02 2.84945526e+02 2.44383987e+02 1.99646088e+02 1.54180695e+02 1.03308151e+02 5.02252998e+01 -3.45971084e+00 -5.41589050e+01 -9.91556549e+01 -1.40718506e+02 -1.83997635e+02 -2.30356552e+02 -2.90749054e+02 -3.40662140e+02 -3.76394318e+02 -4.30584534e+02 -4.89002197e+02 -5.36858459e+02 -5.80407776e+02 -6.17015442e+02 -6.62377563e+02 -7.19005432e+02 -7.72609680e+02 -8.20566223e+02 -8.39147522e+02 -8.91518066e+02 -9.63858154e+02 -9.98446045e+02 -1.05197510e+03 -1.09703613e+03 -1.12837329e+03 -1.19269714e+03 -1.26696960e+03 -1.29663770e+03 -1.32020227e+03 -1.38780908e+03 -1.44775940e+03 -1.46822498e+03 -1.49370728e+03 -1.55294800e+03 -1.60417542e+03 -1.67734094e+03 -1.73268030e+03 -1.72914758e+03 -1.76414600e+03 -1.84695093e+03 -1.92364331e+03 -1.96784351e+03 -1.98139478e+03 -1.99953845e+03 -2.08442725e+03 -2.12430127e+03 -2.14839453e+03 -2.24582153e+03 -2.25721460e+03 -2.28979688e+03 -2.38214673e+03 -2.33769629e+03 -2.36913159e+03 -2.54672803e+03 -2.58926660e+03 -2.55766260e+03 -2.63305298e+03 -2.66677686e+03 -2.62136914e+03 -2.66322217e+03 -2.78866797e+03 -2.84967651e+03 -2.88133276e+03 -2.91303467e+03 -2.94138843e+03 -3.01419971e+03 -3.07949878e+03 -3.19804834e+03 -3.20918335e+03 -3.09252783e+03 -3.12567529e+03 -3.22858057e+03 -3.30411035e+03 -3.37376440e+03 -3.36650391e+03 -3.38890186e+03 -3.49440649e+03 -3.54767334e+03 -3.53672632e+03 -3.60195410e+03 -3.60995215e+03 -3.61532056e+03 -3.79658716e+03 -3.80089966e+03 -3.72139380e+03 -3.87669336e+03 -3.92978198e+03 -3.91432812e+03 -3.94235669e+03 -3.90615283e+03 -3.97204834e+03 -4.08574292e+03 -4.23814600e+03 -4.20586279e+03 -4.04245264e+03 -4.13712598e+03 -4.31668652e+03 -4.32451367e+03 -4.28281885e+03 -4.33648584e+03 -4.38159229e+03 -4.45062646e+03 -4.54109277e+03 -4.54963135e+03 -4.57149170e+03 -4.62131445e+03 -4.60831787e+03 -4.63310889e+03 -4.68320459e+03 -4.66113965e+03 -4.72065820e+03 -4.81718945e+03 -4.89821924e+03 -4.84348096e+03 -4.78180811e+03 -4.92382910e+03 -5.03445801e+03 -5.16918652e+03 -5.11824268e+03 -4.89329297e+03 -4.96275488e+03 -5.10652197e+03 -5.29057324e+03 -5.39812695e+03 -5.19627588e+03 -5.08532617e+03 -5.18146973e+03 -5.25548340e+03 -5.25705762e+03 -5.45642969e+03 -5.65759082e+03 -5.44848047e+03 -5.32608887e+03 -5.33068115e+03 -5.37239600e+03 -5.67595215e+03 -5.79441406e+03 -5.68574365e+03 -5.51411963e+03 -5.36591357e+03 -5.55910156e+03 -5.67721045e+03 -5.90087451e+03 -6.02514893e+03 -5.70310693e+03 -5.65693896e+03 -5.83649854e+03 -5.84266650e+03 -5.83253662e+03 -6.03977881e+03 -6.09852637e+03 -5.88851074e+03
    2.31235645e+03 2.27373120e+03 2.27448706e+03 2.26302344e+03 2.18620508e+03 2.05824902e+03 2.03990430e+03 2.03300952e+03 1.97395801e+03 1.95848059e+03 1.89075525e+03 1.82285913e+03 1.82513672e+03 1.77826575e+03 1.71063770e+03 1.66582019e+03 1.60624634e+03 1.56170093e+03 1.50860754e+03 1.46385132e+03 1.43336096e+03 1.39880408e+03 1.34975183e+03 1.29199939e+03 1.24276123e+03 1.18558240e+03 1.14697205e+03 1.11435791e+03 1.05555933e+03 9.83901001e+02 9.46923340e+02 9.18112915e+02 8.72645935e+02 8.37141113e+02 7.75390991e+02 7.01266235e+02 6.54215088e+02 6.11405334e+02 5.68540405e+02 5.43683716e+02 4.94708771e+02 4.29189575e+02 3.79298920e+02 3.28102997e+02 2.86355499e+02 2.45621307e+02 1.92966583e+02 1.43314697e+02 9.36995163e+01 4.50749512e+01 -1.15229316e-01 -4.74277039e+01 -9.82950211e+01 -1.49173843e+02 -1.98230560e+02 -2.40082397e+02 -2.93835449e+02 -3.41200806e+02 -3.80353668e+02 -4.30145325e+02 -4.74817810e+02 -5.27359009e+02 -5.82841309e+02 -6.19262085e+02 -6.74043091e+02 -7.24509216e+02 -7.55692505e+02 -8.00519531e+02 -8.46695618e+02 -8.96696716e+02 -9.47904663e+02 -1.00201093e+03 -1.05547217e+03 -1.09756580e+03 -1.13811194e+03 -1.18507581e+03 -1.25642932e+03 -1.32255811e+03 -1.35367920e+03 -1.36926794e+03 -1.41229565e+03 -1.45801245e+03 -1.51076929e+03 -1.58861560e+03 -1.62903845e+03 -1.66353174e+03 -1.71421265e+03 -1.73930676e+03 -1.77925281e+03 -1.86320264e+03 -1.91063391e+03 -1.95134692e+03 -1.98725903e+03 -2.01666553e+03 -2.08057397e+03 -2.08090405e+03 -2.14849072e+03 -2.26860522e+03 -2.24711157e+03 -2.28015576e+03 -2.36865771e+03 -2.35149902e+03 -2.39866943e+03 -2.57010254e+03 -2.61100073e+03 -2.52378711e+03 -2.56436816e+03 -2.63051343e+03 -2.65493872e+03 -2.75688843e+03 -2.80568164e+03 -2.80004370e+03 -2.86059912e+03 -2.91548315e+03 -2.97925439e+03 -3.03849731e+03 -3.05825854e+03 -3.13231641e+03 -3.18134668e+03 -3.09834888e+03 -3.14407935e+03 -3.28403296e+03 -3.32186206e+03 -3.36845874e+03 -3.39669409e+03 -3.35816895e+03 -3.44014526e+03 -3.61298291e+03 -3.62352124e+03 -3.53376514e+03 -3.52573291e+03 -3.64360669e+03 -3.80913647e+03 -3.80871924e+03 -3.78545508e+03 -3.84958887e+03 -3.81578101e+03 -3.91038330e+03 -4.02606738e+03 -3.92712598e+03 -3.96723828e+03 -4.14032568e+03 -4.13781982e+03 -4.08930737e+03 -4.11554688e+03 -4.10185938e+03 -4.26780078e+03 -4.42209180e+03 -4.34507959e+03 -4.27308789e+03 -4.30263477e+03 -4.43450244e+03 -4.59636816e+03 -4.71002783e+03 -4.60418506e+03 -4.47633447e+03 -4.52495947e+03 -4.63692285e+03 -4.73279492e+03 -4.72728369e+03 -4.66759766e+03 -4.74759277e+03 -4.90877197e+03 -4.86911572e+03 -4.89451123e+03 -5.00695117e+03 -5.01887793e+03 -5.00408643e+03 -5.00605518e+03 -4.94242676e+03 -4.96415820e+03 -5.16272510e+03 -5.36074414e+03 -5.40027002e+03 -5.13205273e+03 -5.01649414e+03 -5.18776465e+03 -5.22822363e+03 -5.34737549e+03 -5.54526709e+03 -5.49239795e+03 -5.35219727e+03 -5.33109619e+03 -5.38159473e+03 -5.51155469e+03 -5.70041943e+03 -5.73991309e+03 -5.66266602e+03 -5.49963135e+03 -5.36935840e+03 -5.57977930e+03 -5.76672559e+03 -5.87591602e+03 -5.98450977e+03 -5.75061182e+03 -5.57979150e+03 -5.83692871e+03 -5.97774756e+03 -5.89836279e+03 -5.99335010e+03 -5.92293799e+03 -5.80745166e+03
    2.37744360e+03 2.28962671e+03 2.19979639e+03 2.22862915e+03 2.20481787e+03 2.11005640e+03 2.04829028e+03 1.97544067e+03 1.96011292e+03 1.98912000e+03 1.93964124e+03 1.84850415e+03 1.80705286e+03 1.75965576e+03 1.67086755e+03 1.64181934e+03 1.60740515e+03 1.55541943e+03 1.53703198e+03 1.47071631e+03 1.39772510e+03 1.36402979e+03 1.32106482e+03 1.27492651e+03 1.23443933e+03 1.19468054e+03 1.14986523e+03 1.08561060e+03 1.03654968e+03 9.78521606e+02 9.57729736e+02 9.28455872e+02 8.54000183e+02 8.06495117e+02 7.48984985e+02 6.90081665e+02 6.49404541e+02 6.10492126e+02 5.78070496e+02 5.37636169e+02 4.78881836e+02 4.17176788e+02 3.71596191e+02 3.27659332e+02 2.83901428e+02 2.37943634e+02 1.83052246e+02 1.35716766e+02 8.85482712e+01 4.15039558e+01 -1.99783787e-01 -4.66942711e+01 -9.56349564e+01 -1.50678757e+02 -2.01140366e+02 -2.42698425e+02 -2.88021179e+02 -3.34438232e+02 -3.80286530e+02 -4.37320862e+02 -4.80559753e+02 -5.17049683e+02 -5.69716125e+02 -6.26684326e+02 -6.80656799e+02 -7.25625671e+02 -7.59586487e+02 -7.97023438e+02 -8.53596680e+02 -9.11991577e+02 -9.53558533e+02 -9.81746826e+02 -1.03616382e+03 -1.10114392e+03 -1.13958960e+03 -1.20330969e+03 -1.25500500e+03 -1.28312769e+03 -1.33832275e+03 -1.38733301e+03 -1.43153406e+03 -1.45459473e+03 -1.49846802e+03 -1.57569568e+03 -1.61815063e+03 -1.65891260e+03 -1.68881604e+03 -1.72749829e+03 -1.80899353e+03 -1.86939343e+03 -1.90699622e+03 -1.94896155e+03 -1.95015271e+03 -1.98959070e+03 -2.10196680e+03 -2.13485352e+03 -2.12837378e+03 -2.22372217e+03 -2.26126587e+03 -2.26006934e+03 -2.38122461e+03 -2.40422388e+03 -2.37763843e+03 -2.51256226e+03 -2.60392773e+03 -2.55800391e+03 -2.59462476e+03 -2.65806982e+03 -2.66265112e+03 -2.71131738e+03 -2.78593408e+03 -2.79575049e+03 -2.85511719e+03 -2.97313306e+03 -2.97596753e+03 -3.00983350e+03 -3.05033105e+03 -3.09795068e+03 -3.15796289e+03 -3.11137524e+03 -3.20042993e+03 -3.27782593e+03 -3.27680664e+03 -3.37742871e+03 -3.39190698e+03 -3.38746924e+03 -3.48563672e+03 -3.60811304e+03 -3.60416260e+03 -3.50692725e+03 -3.57997656e+03 -3.64849951e+03 -3.78378613e+03 -3.87854883e+03 -3.80662109e+03 -3.78357007e+03 -3.77187598e+03 -3.94420288e+03 -4.04210840e+03 -3.95222241e+03 -3.98470874e+03 -4.10562646e+03 -4.09351392e+03 -4.08472705e+03 -4.15868848e+03 -4.13155225e+03 -4.28226270e+03 -4.42819531e+03 -4.31606348e+03 -4.25144775e+03 -4.35981104e+03 -4.48246045e+03 -4.58511279e+03 -4.63074121e+03 -4.52246338e+03 -4.50712207e+03 -4.54427832e+03 -4.62581055e+03 -4.76164160e+03 -4.72823828e+03 -4.62787061e+03 -4.69030273e+03 -4.84856885e+03 -4.92492969e+03 -4.98392578e+03 -5.01104736e+03 -4.96926270e+03 -4.99542090e+03 -4.98460156e+03 -4.93918945e+03 -5.09609229e+03 -5.16105518e+03 -5.17490186e+03 -5.32733398e+03 -5.15256592e+03 -5.07607422e+03 -5.25947168e+03 -5.24683691e+03 -5.28599121e+03 -5.50275586e+03 -5.47986475e+03 -5.29852246e+03 -5.34956934e+03 -5.48015576e+03 -5.48021143e+03 -5.64865283e+03 -5.65482373e+03 -5.56267725e+03 -5.55439355e+03 -5.50128320e+03 -5.65699902e+03 -5.64762109e+03 -5.71542383e+03 -5.94376611e+03 -5.78552051e+03 -5.82782422e+03 -5.91528760e+03 -5.69517969e+03 -5.78189941e+03 -5.98597900e+03 -6.03630615e+03 -5.96252148e+03
    2.35038379e+03 2.28583374e+03 2.22984326e+03 2.18432739e+03 2.18832690e+03 2.12837646e+03 2.05577588e+03 1.99014807e+03 1.95216504e+03 1.96032727e+03 1.90270398e+03 1.83495581e+03 1.81284167e+03 1.73788025e+03 1.65156116e+03 1.64163501e+03 1.63886731e+03 1.55994592e+03 1.49930200e+03 1.45088538e+03 1.39240540e+03 1.36130420e+03 1.31431213e+03 1.27689197e+03 1.25199683e+03 1.19709705e+03 1.14243494e+03 1.08114087e+03 1.03550671e+03 9.83556458e+02 9.52333740e+02 9.24998535e+02 8.48950745e+02 8.01779968e+02 7.52111572e+02 6.92412109e+02 6.66323303e+02 6.27333435e+02 5.74423706e+02 5.26101257e+02 4.72105865e+02 4.19630127e+02 3.78557220e+02 3.37313660e+02 2.83549835e+02 2.33683594e+02 1.86581543e+02 1.40706055e+02 9.54108658e+01 4.70194092e+01 -2.78054261e+00 -5.11706696e+01 -9.63856735e+01 -1.41315887e+02 -1.90155350e+02 -2.38986710e+02 -2.88978912e+02 -3.31941162e+02 -3.73112335e+02 -4.35176636e+02 -4.85942474e+02 -5.30243042e+02 -5.77258728e+02 -6.21350708e+02 -6.75395142e+02 -7.32008423e+02 -7.70441589e+02 -7.99522156e+02 -8.50041504e+02 -9.14564819e+02 -9.57595520e+02 -9.90390686e+02 -1.03281152e+03 -1.07978784e+03 -1.14329248e+03 -1.19967810e+03 -1.25126501e+03 -1.28267957e+03 -1.31622021e+03 -1.37651978e+03 -1.43025000e+03 -1.47898950e+03 -1.49256970e+03 -1.53651489e+03 -1.61387439e+03 -1.67145996e+03 -1.72924890e+03 -1.74287024e+03 -1.77343347e+03 -1.83206714e+03 -1.89890686e+03 -1.98750891e+03 -1.96451050e+03 -1.98823376e+03 -2.10276807e+03 -2.09323291e+03 -2.12174170e+03 -2.22918311e+03 -2.26137231e+03 -2.31675635e+03 -2.38706738e+03 -2.35859741e+03 -2.34383740e+03 -2.49216943e+03 -2.58502124e+03 -2.55824048e+03 -2.67224731e+03 -2.68953613e+03 -2.61271826e+03 -2.67282642e+03 -2.76775659e+03 -2.84909961e+03 -2.88622046e+03 -2.95345312e+03 -2.97135815e+03 -2.99125732e+03 -3.07190625e+03 -3.13557031e+03 -3.19058716e+03 -3.12397778e+03 -3.15279224e+03 -3.24601367e+03 -3.27872339e+03 -3.36250684e+03 -3.37457422e+03 -3.37632983e+03 -3.50536499e+03 -3.57476172e+03 -3.57514941e+03 -3.52435620e+03 -3.56121045e+03 -3.67039575e+03 -3.79192920e+03 -3.84768091e+03 -3.80960059e+03 -3.77267212e+03 -3.82265894e+03 -3.96681909e+03 -4.01172168e+03 -3.86063745e+03 -3.95588721e+03 -4.19909229e+03 -4.07753076e+03 -4.09368677e+03 -4.20469922e+03 -4.11728418e+03 -4.26001025e+03 -4.37038037e+03 -4.31218652e+03 -4.34496582e+03 -4.35501855e+03 -4.41017139e+03 -4.52343896e+03 -4.64596875e+03 -4.55371631e+03 -4.48692676e+03 -4.65690869e+03 -4.57111084e+03 -4.60839648e+03 -4.77513574e+03 -4.65531250e+03 -4.72374561e+03 -4.91618750e+03 -4.97308398e+03 -4.88010938e+03 -4.90682471e+03 -5.01026904e+03 -4.99351904e+03 -5.00537842e+03 -5.04678320e+03 -5.06957812e+03 -5.17715625e+03 -5.23206641e+03 -5.25283105e+03 -5.16098730e+03 -5.18936475e+03 -5.29702930e+03 -5.11388916e+03 -5.08640479e+03 -5.47565967e+03 -5.61584424e+03 -5.50829199e+03 -5.45687451e+03 -5.28881982e+03 -5.22283887e+03 -5.61805566e+03 -5.82884668e+03 -5.62631494e+03 -5.50065820e+03 -5.40139062e+03 -5.60573584e+03 -5.72143115e+03 -5.82008447e+03 -5.99597266e+03 -5.74488770e+03 -5.73358594e+03 -5.88643506e+03 -5.76195264e+03 -5.74647168e+03 -6.06507568e+03 -6.06822070e+03 -5.92365869e+03
    2.33219214e+03 2.27355078e+03 2.24951001e+03 2.22542676e+03 2.17576025e+03 2.09198340e+03 2.03923730e+03 2.00764014e+03 1.94854089e+03 1.97144116e+03 1.96341833e+03 1.81428088e+03 1.77601685e+03 1.74210242e+03 1.64804846e+03 1.64580713e+03 1.65263184e+03 1.56661731e+03 1.49608008e+03 1.44674927e+03 1.39267737e+03 1.37393262e+03 1.35590125e+03 1.29611780e+03 1.23263770e+03 1.19272424e+03 1.15419543e+03 1.09414612e+03 1.04805261e+03 1.00102338e+03 9.51741577e+02 9.25074097e+02 8.52576904e+02 7.96437744e+02 7.65491577e+02 7.21409729e+02 6.75930481e+02 6.17647400e+02 5.65195129e+02 5.27178101e+02 4.83832001e+02 4.35921600e+02 3.84792725e+02 3.29446045e+02 2.81816498e+02 2.41513794e+02 1.94050873e+02 1.49426743e+02 9.89852142e+01 4.73635597e+01 -3.29637265e+00 -5.26496811e+01 -9.91537857e+01 -1.43546356e+02 -1.87442780e+02 -2.32384857e+02 -2.89655029e+02 -3.38718567e+02 -3.74662506e+02 -4.30993225e+02 -4.88695709e+02 -5.32869019e+02 -5.78585327e+02 -6.17543945e+02 -6.66247803e+02 -7.14216553e+02 -7.64317749e+02 -8.25101685e+02 -8.44084290e+02 -8.94938416e+02 -9.61238647e+02 -9.93720764e+02 -1.05022168e+03 -1.10254431e+03 -1.13522083e+03 -1.18265320e+03 -1.25491089e+03 -1.29481018e+03 -1.31851221e+03 -1.38746777e+03 -1.44537695e+03 -1.47345764e+03 -1.49050598e+03 -1.55103015e+03 -1.59553076e+03 -1.65985657e+03 -1.73985632e+03 -1.73128992e+03 -1.75917200e+03 -1.84069128e+03 -1.92013013e+03 -1.97045068e+03 -1.97300720e+03 -1.97914917e+03 -2.08973462e+03 -2.13190186e+03 -2.13856152e+03 -2.23395410e+03 -2.25947095e+03 -2.29022900e+03 -2.36216455e+03 -2.34670557e+03 -2.37711768e+03 -2.53653320e+03 -2.59211377e+03 -2.54522632e+03 -2.62557886e+03 -2.66585376e+03 -2.60626929e+03 -2.65692822e+03 -2.78414062e+03 -2.85857275e+03 -2.84366650e+03 -2.91650024e+03 -2.98196729e+03 -2.99932568e+03 -3.08066455e+03 -3.18622876e+03 -3.20561450e+03 -3.11112012e+03 -3.13440820e+03 -3.20894727e+03 -3.30597437e+03 -3.41164746e+03 -3.31171924e+03 -3.32971924e+03 -3.58885034e+03 -3.55985449e+03 -3.48674634e+03 -3.54956396e+03 -3.61588257e+03 -3.64719922e+03 -3.77184204e+03 -3.79941455e+03 -3.75148682e+03 -3.81988135e+03 -3.88971289e+03 -3.96871582e+03 -3.95873999e+03 -3.85738940e+03 -3.97967529e+03 -4.13673779e+03 -4.19317188e+03 -4.18107373e+03 -4.10657227e+03 -4.11923535e+03 -4.27134131e+03 -4.36468750e+03 -4.31564502e+03 -4.34306689e+03 -4.37080469e+03 -4.41822119e+03 -4.50312549e+03 -4.53244629e+03 -4.54074023e+03 -4.61087354e+03 -4.71072559e+03 -4.55341309e+03 -4.58246631e+03 -4.76830518e+03 -4.74328857e+03 -4.75936621e+03 -4.87758301e+03 -4.83944238e+03 -4.78734619e+03 -4.93325439e+03 -5.01547949e+03 -5.18746582e+03 -5.12871582e+03 -4.87861523e+03 -4.92805371e+03 -5.12393701e+03 -5.30970215e+03 -5.37283301e+03 -5.18483154e+03 -5.05706641e+03 -5.21672852e+03 -5.24801416e+03 -5.19979004e+03 -5.42474072e+03 -5.64714160e+03 -5.49165039e+03 -5.35369287e+03 -5.28387451e+03 -5.23816357e+03 -5.66772998e+03 -5.90845752e+03 -5.69123975e+03 -5.52039893e+03 -5.32792529e+03 -5.52870020e+03 -5.68600928e+03 -5.89338477e+03 -6.09001367e+03 -5.66867041e+03 -5.62201221e+03 -5.82761670e+03 -5.84584912e+03 -5.84801074e+03 -6.05821484e+03 -6.08495947e+03 -5.87754053e+03
    2.28811108e+03 2.26786255e+03 2.28095361e+03 2.25934448e+03 2.17906396e+03 2.05434839e+03 2.02743884e+03 2.03811511e+03 1.98044092e+03 1.97083862e+03 1.90452649e+03 1.77550549e+03 1.80235657e+03 1.78651025e+03 1.69904529e+03 1.66020020e+03 1.61260400e+03 1.55485449e+03 1.50444641e+03 1.46247339e+03 1.42492102e+03 1.39146448e+03 1.34545813e+03 1.28959729e+03 1.22863367e+03 1.17936597e+03 1.15094824e+03 1.11062207e+03 1.05460767e+03 9.81943848e+02 9.41273682e+02 9.22842346e+02 8.62308716e+02 8.22049438e+02 7.73291748e+02 6.99433105e+02 6.57855225e+02 6.13589783e+02 5.69485046e+02 5.43250122e+02 4.88539642e+02 4.23320892e+02 3.77552002e+02 3.29502777e+02 2.86812103e+02 2.44112854e+02 1.91981628e+02 1.43399673e+02 9.51470032e+01 4.55512733e+01 -6.29664838e-01 -4.84014816e+01 -9.83877411e+01 -1.47312500e+02 -1.94201157e+02 -2.37331833e+02 -2.91686310e+02 -3.37006500e+02 -3.77929565e+02 -4.31823700e+02 -4.75321381e+02 -5.26815552e+02 -5.82567261e+02 -6.20497803e+02 -6.86833923e+02 -7.21546387e+02 -7.45290649e+02 -8.05587280e+02 -8.45258423e+02 -9.02319031e+02 -9.53208801e+02 -1.00098761e+03 -1.05167700e+03 -1.09378357e+03 -1.13654785e+03 -1.17689514e+03 -1.24722900e+03 -1.31870911e+03 -1.34899316e+03 -1.36965381e+03 -1.40965479e+03 -1.46437219e+03 -1.50419397e+03 -1.59036243e+03 -1.60509363e+03 -1.63727319e+03 -1.74041638e+03 -1.73541394e+03 -1.77022498e+03 -1.86542151e+03 -1.91659534e+03 -1.96017358e+03 -1.97467725e+03 -1.99127759e+03 -2.08614062e+03 -2.08588696e+03 -2.14126172e+03 -2.25142651e+03 -2.25010083e+03 -2.28643286e+03 -2.34468774e+03 -2.35297729e+03 -2.41255200e+03 -2.56888916e+03 -2.61746777e+03 -2.52207690e+03 -2.54897412e+03 -2.63261816e+03 -2.64972534e+03 -2.74742188e+03 -2.80143433e+03 -2.81340552e+03 -2.81155103e+03 -2.89802661e+03 -3.04283179e+03 -3.05437500e+03 -3.05836743e+03 -3.12932568e+03 -3.17091309e+03 -3.10344824e+03 -3.14785718e+03 -3.28208569e+03 -3.30502148e+03 -3.39504419e+03 -3.34686401e+03 -3.31760425e+03 -3.54422998e+03 -3.57088232e+03 -3.55509766e+03 -3.58315112e+03 -3.53802148e+03 -3.61753760e+03 -3.79453833e+03 -3.81410449e+03 -3.76319678e+03 -3.85826733e+03 -3.83047290e+03 -3.87790479e+03 -4.03808301e+03 -3.89134180e+03 -3.94381714e+03 -4.16183643e+03 -4.12818359e+03 -4.08378149e+03 -4.13468701e+03 -4.12852246e+03 -4.22233203e+03 -4.39360791e+03 -4.36775000e+03 -4.28466455e+03 -4.26048828e+03 -4.38708350e+03 -4.61302686e+03 -4.71208789e+03 -4.58968945e+03 -4.45120801e+03 -4.57852148e+03 -4.60600635e+03 -4.64221777e+03 -4.77904883e+03 -4.69794043e+03 -4.72356348e+03 -4.86932178e+03 -4.83765527e+03 -4.91569727e+03 -4.99194629e+03 -4.98662988e+03 -5.04526074e+03 -4.99842871e+03 -4.91031152e+03 -4.94826074e+03 -5.22410205e+03 -5387. -5.32551904e+03 -5.08417188e+03 -5.00100879e+03 -5.24017334e+03 -5.26590186e+03 -5.32709521e+03 -5.40441113e+03 -5.46313770e+03 -5.40248779e+03 -5.34172314e+03 -5.39800195e+03 -5.44066357e+03 -5.65058887e+03 -5.78263965e+03 -5.65420459e+03 -5.49237988e+03 -5.34590479e+03 -5.51210645e+03 -5.70421240e+03 -5.91270166e+03 -6.08044482e+03 -5.70201562e+03 -5.56983350e+03 -5.84746045e+03 -6.03499121e+03 -5.87208984e+03 -5.94571924e+03 -5.94036230e+03 -5.78168115e+03
    2.33642383e+03 2.29342236e+03 2.20454980e+03 2.22553784e+03 2.20916895e+03 2.09560205e+03 2.00327307e+03 1.98908997e+03 1.98400916e+03 2.00022437e+03 1.95527966e+03 1.80315149e+03 1.78378052e+03 1.76747717e+03 1.67117261e+03 1.64512756e+03 1.60743640e+03 1.55041016e+03 1.53484131e+03 1.47100037e+03 1.39072705e+03 1.36981323e+03 1.32787634e+03 1.27178418e+03 1.23256787e+03 1.19854663e+03 1.14847327e+03 1.08652930e+03 1.04144299e+03 9.78261902e+02 9.60045654e+02 9.34000732e+02 8.48369446e+02 8.00953003e+02 7.60454224e+02 6.97489746e+02 6.51725281e+02 6.13991455e+02 5.76822388e+02 5.38113831e+02 4.77836578e+02 4.18282288e+02 3.74167938e+02 3.28396545e+02 2.85548401e+02 2.40701675e+02 1.86529846e+02 1.40155579e+02 9.24331436e+01 4.36458778e+01 -1.08674657e+00 -4.85108833e+01 -9.63398438e+01 -1.47665634e+02 -1.95968002e+02 -2.38972092e+02 -2.90299530e+02 -3.36550751e+02 -3.80794464e+02 -4.38323669e+02 -4.81094299e+02 -5.16093140e+02 -5.71347839e+02 -6.27501343e+02 -6.91804932e+02 -7.20639832e+02 -7.42114563e+02 -7.97383057e+02 -8.53691956e+02 -9.17815613e+02 -9.58244507e+02 -9.81777710e+02 -1.03323694e+03 -1.09744312e+03 -1.13426672e+03 -1.20501599e+03 -1.25849243e+03 -1.28229419e+03 -1.33568909e+03 -1.38091125e+03 -1.43274548e+03 -1.46823254e+03 -1.48935132e+03 -1.57981787e+03 -1.59709290e+03 -1.63826392e+03 -1.70412378e+03 -1.72457007e+03 -1.81859961e+03 -1.87249060e+03 -1.91440613e+03 -1.95347180e+03 -1.93311121e+03 -1.97563269e+03 -2.10790381e+03 -2.13207959e+03 -2.13097119e+03 -2.21608789e+03 -2.26459521e+03 -2.26784155e+03 -2.37061963e+03 -2.39961768e+03 -2.38088892e+03 -2.51200244e+03 -2.61025391e+03 -2.55786548e+03 -2.57173975e+03 -2.67893018e+03 -2.66195703e+03 -2.68787134e+03 -2.77984595e+03 -2.79830347e+03 -2.82903784e+03 -2.93989136e+03 -3.00527124e+03 -3.04229297e+03 -3.06058057e+03 -3.09267358e+03 -3.13884131e+03 -3.11068994e+03 -3.20651099e+03 -3.26292114e+03 -3.24564062e+03 -3.39434155e+03 -3.37446265e+03 -3.38345142e+03 -3.50746655e+03 -3.53836328e+03 -3.60622974e+03 -3.57661206e+03 -3.57667798e+03 -3.61677539e+03 -3.76983179e+03 -3.86746289e+03 -3.76478003e+03 -3.85413184e+03 -3.82822217e+03 -3.81857593e+03 -4.04200220e+03 -3.97451782e+03 -3.93363989e+03 -4.07292432e+03 -4.14392676e+03 -4.10258496e+03 -4.14928613e+03 -4.15526660e+03 -4.25024561e+03 -4.38787256e+03 -4.33284766e+03 -4.26778418e+03 -4.29233496e+03 -4.46016113e+03 -4.58361377e+03 -4.64155566e+03 -4.56335010e+03 -4.49129443e+03 -4.51844238e+03 -4.64947119e+03 -4.75346875e+03 -4.72434961e+03 -4.65315479e+03 -4.66392773e+03 -4.81287646e+03 -4.92682764e+03 -4.99685059e+03 -4.97662695e+03 -4.94019238e+03 -5.02320850e+03 -4.96326807e+03 -4.90908301e+03 -5.11239062e+03 -5.20268359e+03 -5.21302734e+03 -5.29237158e+03 -5.09007861e+03 -5.07411523e+03 -5.32719189e+03 -5.28357715e+03 -5.29503516e+03 -5.38791357e+03 -5.42584570e+03 -5.36002197e+03 -5.26907959e+03 -5.47652441e+03 -5.60231006e+03 -5.57948779e+03 -5.59887158e+03 -5.56960205e+03 -5.60179053e+03 -5.43683545e+03 -5.53360498e+03 -5.69627148e+03 -5.75134082e+03 -5.95850391e+03 -5.81347119e+03 -5.77766699e+03 -5.87481104e+03 -5.77229883e+03 -5.75803955e+03 -5.96295117e+03 -6.05777930e+03 -5.93095312e+03
    2.31164062e+03 2.29394702e+03 2.26476147e+03 2.17904297e+03 2.16852539e+03 2.11694092e+03 2.01085730e+03 2.00122046e+03 1.98047473e+03 1.99334253e+03 1.89613843e+03 1.80524561e+03 1.81184265e+03 1.73539612e+03 1.66838135e+03 1.65969629e+03 1.63775110e+03 1.55645178e+03 1.49989124e+03 1.45398975e+03 1.38937878e+03 1.37053491e+03 1.32479309e+03 1.26949048e+03 1.25337256e+03 1.20539893e+03 1.13820532e+03 1.08346558e+03 1.03518079e+03 9.81770447e+02 9.59375793e+02 9.22161499e+02 8.53024170e+02 8.05976562e+02 7.59947632e+02 6.97459045e+02 6.62252014e+02 6.27807861e+02 5.71450867e+02 5.26392456e+02 4.74745361e+02 4.25387787e+02 3.81195190e+02 3.33282318e+02 2.84232025e+02 2.36806808e+02 1.88523148e+02 1.40537003e+02 9.41559830e+01 4.66510658e+01 -1.91643226e+00 -4.98629189e+01 -9.65976486e+01 -1.42348495e+02 -1.90793289e+02 -2.39671127e+02 -2.93872498e+02 -3.35842316e+02 -3.72526093e+02 -4.32157074e+02 -4.82937347e+02 -5.27840454e+02 -5.79343689e+02 -6.18364685e+02 -6.74912476e+02 -7.26674744e+02 -7.59781067e+02 -7.98454041e+02 -8.49989685e+02 -9.16949890e+02 -9.56422607e+02 -9.90592285e+02 -1.03843164e+03 -1.07721448e+03 -1.13281274e+03 -1.21276245e+03 -1.25640527e+03 -1.27796704e+03 -1.32211694e+03 -1.37787158e+03 -1.43030969e+03 -1.48079968e+03 -1.49009509e+03 -1.54074377e+03 -1.60231702e+03 -1.66942822e+03 -1.73864270e+03 -1.73564417e+03 -1.78489038e+03 -1.82494958e+03 -1.89715771e+03 -1.99478662e+03 -1.95520068e+03 -1.99561670e+03 -2.09653833e+03 -2.06998535e+03 -2.12782324e+03 -2.24099121e+03 -2.27120459e+03 -2.31892725e+03 -2.38315991e+03 -2.34498853e+03 -2.32704883e+03 -2.50165088e+03 -2.59053442e+03 -2.55381323e+03 -2.65904541e+03 -2.71384082e+03 -2.62011182e+03 -2.66443115e+03 -2.75103882e+03 -2.82301514e+03 -2.91517310e+03 -2.91727222e+03 -2.95082202e+03 -3.02553149e+03 -3.10101587e+03 -3.12918433e+03 -3.15685034e+03 -3.12112646e+03 -3.14335864e+03 -3.25777173e+03 -3.25847046e+03 -3.33385986e+03 -3.40058325e+03 -3.41991138e+03 -3.46314771e+03 -3.52627930e+03 -3.60795679e+03 -3.59534448e+03 -3.56400439e+03 -3.62863818e+03 -3.77896143e+03 -3.82458008e+03 -3.76046924e+03 -3.86996167e+03 -3.90212402e+03 -3.82605249e+03 -3.93921582e+03 -3.91017383e+03 -3.95767896e+03 -4.13263281e+03 -4.16109424e+03 -4.13054980e+03 -4.16042188e+03 -4.14983398e+03 -4.26295605e+03 -4.35732422e+03 -4.30650684e+03 -4.29789795e+03 -4.30686670e+03 -4.46793066e+03 -4.54939062e+03 -4.64010938e+03 -4.63134033e+03 -4.42613525e+03 -4.53336523e+03 -4.71085400e+03 -4.68281250e+03 -4.69384326e+03 -4.64763672e+03 -4.73251221e+03 -4.89995068e+03 -4.94349951e+03 -4.90021582e+03 -4.85300684e+03 -4.98763086e+03 -5.03581250e+03 -5.00149023e+03 -5.01676709e+03 -5.08269141e+03 -5.15776953e+03 -5.24608057e+03 -5.28180469e+03 -5.11771191e+03 -5.21218799e+03 -5.30647217e+03 -5.11492773e+03 -5.12299219e+03 -5.39651318e+03 -5.58884033e+03 -5.52392529e+03 -5.30892822e+03 -5.34726318e+03 -5.48975977e+03 -5.54375000e+03 -5.66114844e+03 -5.68035205e+03 -5.52605322e+03 -5.35323291e+03 -5.47224268e+03 -5.79167432e+03 -5.95419580e+03 -5.89927295e+03 -5.76659277e+03 -5.71375244e+03 -5.83259326e+03 -5.81738525e+03 -5.71112598e+03 -6.01980371e+03 -6.11903760e+03 -5.89976807e+03
    2.30030908e+03 2.31143091e+03 2.28287793e+03 2.19340430e+03 2.16279712e+03 2.08017114e+03 2.00287219e+03 2.00918420e+03 1.97512341e+03 1.99005969e+03 1.93658789e+03 1.82172925e+03 1.78096729e+03 1.73559424e+03 1.68299854e+03 1.65402930e+03 1.62089697e+03 1.56430798e+03 1.50604089e+03 1.43536316e+03 1.39813367e+03 1.38015576e+03 1.34369580e+03 1.28720459e+03 1.23460583e+03 1.19911487e+03 1.13830225e+03 1.07671265e+03 1.04415149e+03 1.01390118e+03 9.48290527e+02 9.06277039e+02 8.66691284e+02 7.97778320e+02 7.62826660e+02 7.20059204e+02 6.64358337e+02 6.19845886e+02 5.59361755e+02 5.20885803e+02 4.81384552e+02 4.40302063e+02 3.83588562e+02 3.23468323e+02 2.83638184e+02 2.38812973e+02 1.90650574e+02 1.45302643e+02 9.52773895e+01 4.57485046e+01 -1.99759030e+00 -5.02337265e+01 -9.86153488e+01 -1.46728180e+02 -1.91754547e+02 -2.35196838e+02 -2.88686951e+02 -3.37211853e+02 -3.73081543e+02 -4.29181732e+02 -4.89154541e+02 -5.30065369e+02 -5.74639099e+02 -6.15656860e+02 -6.63989136e+02 -7.19397095e+02 -7.71648804e+02 -8.21565125e+02 -8.47262634e+02 -8.93731384e+02 -9.57773315e+02 -9.95989197e+02 -1.05697705e+03 -1.09013318e+03 -1.12156799e+03 -1.20470435e+03 -1.25739270e+03 -1.29333704e+03 -1.32219751e+03 -1.38398901e+03 -1.44797644e+03 -1.46054419e+03 -1.49292383e+03 -1.54343372e+03 -1.59659766e+03 -1.68990649e+03 -1.71582324e+03 -1.71305823e+03 -1.77153748e+03 -1.83112866e+03 -1.91035425e+03 -1.97724268e+03 -1.97289502e+03 -1.98730823e+03 -2.07890918e+03 -2.11250586e+03 -2.14266064e+03 -2.25252271e+03 -2.27503296e+03 -2.28556030e+03 -2.36401416e+03 -2.33376001e+03 -2.34432812e+03 -2.54448779e+03 -2.60997217e+03 -2.53975342e+03 -2.62587500e+03 -2.67467603e+03 -2.60568335e+03 -2.65903589e+03 -2.79030688e+03 -2.83333130e+03 -2.88290479e+03 -2.90265308e+03 -2.92236865e+03 -3.03199658e+03 -3.08622607e+03 -3.17549829e+03 -3.20354980e+03 -3.10832178e+03 -3.13182959e+03 -3.22686719e+03 -3.30828979e+03 -3.33835669e+03 -3.34564087e+03 -3.41044922e+03 -3.50439600e+03 -3.55131128e+03 -3.54291919e+03 -3.57901050e+03 -3.62732349e+03 -3.63752808e+03 -3.72797144e+03 -3.77528369e+03 -3.73881201e+03 -3.93553540e+03 -3.98911816e+03 -3.78338940e+03 -3.88137646e+03 -3.95695874e+03 -3.96891528e+03 -4.08014844e+03 -4.25219824e+03 -4.20866650e+03 -4.07889868e+03 -4.14531738e+03 -4.26713281e+03 -4.33888574e+03 -4.30825000e+03 -4.34186328e+03 -4.30581592e+03 -4.42447070e+03 -4.57965430e+03 -4.54626221e+03 -4.59708691e+03 -4.57086182e+03 -4.54973291e+03 -4.63107080e+03 -4.67307227e+03 -4.69404590e+03 -4.74877881e+03 -4.80917383e+03 -4.87761670e+03 -4.82447266e+03 -4.77458105e+03 -4.88899219e+03 -5.01683496e+03 -5.23405859e+03 -5119. -4.83286670e+03 -4.91701074e+03 -5.07018896e+03 -5.31149658e+03 -5.44375244e+03 -5.17352344e+03 -5.09049512e+03 -5.16705029e+03 -5.20606982e+03 -5.24518848e+03 -5.43691650e+03 -5.62702100e+03 -5.48766162e+03 -5.24867041e+03 -5.28050049e+03 -5.46894727e+03 -5.62609912e+03 -5.72981885e+03 -5.77354297e+03 -5.53307373e+03 -5.25051562e+03 -5.52789844e+03 -5.76916553e+03 -5.88951318e+03 -5.94840723e+03 -5.67375000e+03 -5.62015967e+03 -5.86041309e+03 -5.78122070e+03 -5.75080518e+03 -6.13656152e+03 -6.12834082e+03 -5.80948633e+03
    2.28480225e+03 2.27606592e+03 2.33056445e+03 2.23313452e+03 2.14243848e+03 2.06571460e+03 2.03254126e+03 2.02082031e+03 1.98326038e+03 1.98817358e+03 1.87262878e+03 1.78515918e+03 1.79988538e+03 1.77318652e+03 1.73294189e+03 1.68632495e+03 1.57985046e+03 1.52787012e+03 1.51312109e+03 1.45207458e+03 1.42855505e+03 1.38149304e+03 1.32209448e+03 1.29513220e+03 1.24391455e+03 1.18615515e+03 1.13464661e+03 1.08893811e+03 1.04543274e+03 9.94853699e+02 9.40403992e+02 9.06884888e+02 8.76157715e+02 8.17849365e+02 7.62491821e+02 7.02498596e+02 6.56956116e+02 6.18787598e+02 5.62603699e+02 5.31145874e+02 4.86493500e+02 4.31158600e+02 3.74706879e+02 3.24344849e+02 2.89982086e+02 2.43104233e+02 1.86278214e+02 1.41609955e+02 9.59856415e+01 4.60551033e+01 -1.54836142e+00 -4.93604164e+01 -9.90731506e+01 -1.46397095e+02 -1.92096634e+02 -2.35249557e+02 -2.86613861e+02 -3.34288574e+02 -3.78403198e+02 -4.33967194e+02 -4.78260773e+02 -5.24930420e+02 -5.80043152e+02 -6.23563843e+02 -6.80253113e+02 -7.30915527e+02 -7.62627930e+02 -7.99067017e+02 -8.44100891e+02 -8.99130371e+02 -9.52416992e+02 -1.00693835e+03 -1.05920984e+03 -1.07821277e+03 -1.11674207e+03 -1.19219629e+03 -1.24537097e+03 -1.31046411e+03 -1.34529797e+03 -1.36709290e+03 -1.41348486e+03 -1.44928894e+03 -1.51220972e+03 -1.57730542e+03 -1.60685339e+03 -1.66576270e+03 -1.71352612e+03 -1.71875500e+03 -1.77569165e+03 -1.85860693e+03 -1.91471228e+03 -1.96034448e+03 -1.97479578e+03 -2.00223584e+03 -2.07412183e+03 -2.09354053e+03 -2.12239600e+03 -2.25252808e+03 -2.27725513e+03 -2.27358643e+03 -2.35710986e+03 -2.34477686e+03 -2.38099194e+03 -2.58188281e+03 -2.61975195e+03 -2.51035986e+03 -2.56164014e+03 -2.62692017e+03 -2.66260864e+03 -2.77297021e+03 -2.80985254e+03 -2.77866040e+03 -2.87098828e+03 -2.89900488e+03 -2.96026318e+03 -3.07781934e+03 -3.04716333e+03 -3.11187695e+03 -3.15466504e+03 -3.11677637e+03 -3.16282129e+03 -3.29258032e+03 -3.32553223e+03 -3.32167480e+03 -3.36198022e+03 -3.38305664e+03 -3.49947070e+03 -3.58868848e+03 -3.57210107e+03 -3.58075122e+03 -3.55941479e+03 -3.61490112e+03 -3.75556006e+03 -3.79833105e+03 -3.81045874e+03 -3.90323438e+03 -3.85535498e+03 -3.79761304e+03 -3.94673047e+03 -3.96984985e+03 -3.99752563e+03 -4.10746191e+03 -4.18516650e+03 -4.13166504e+03 -4.06087134e+03 -4.15481641e+03 -4.23236377e+03 -4.33619971e+03 -4.37551123e+03 -4.32493457e+03 -4.21607666e+03 -4.38089404e+03 -4.72191846e+03 -4.71201172e+03 -4.58099561e+03 -4.41694482e+03 -4.49471484e+03 -4.62923438e+03 -4.73112305e+03 -4.77889307e+03 -4.65419043e+03 -4.74294141e+03 -4.88064111e+03 -4.84600635e+03 -4.87472168e+03 -4.96346387e+03 -5.00537646e+03 -5.06158203e+03 -5.02106299e+03 -4.87441504e+03 -4.93174219e+03 -5.14756494e+03 -5.39394385e+03 -5.41409863e+03 -5.09037451e+03 -5.03255518e+03 -5.12437695e+03 -5.14972559e+03 -5.37930176e+03 -5.53680420e+03 -5.43125195e+03 -5.33665283e+03 -5.28908105e+03 -5.40524414e+03 -5.53122998e+03 -5.65993408e+03 -5.80119238e+03 -5.72194824e+03 -5.43201172e+03 -5.28752686e+03 -5.56462939e+03 -5.78983057e+03 -5.82135938e+03 -5.82884814e+03 -5.72131201e+03 -5.66909717e+03 -5.91526758e+03 -5.90108594e+03 -5.88990430e+03 -6.04532129e+03 -5.88813574e+03 -5.74657080e+03
    2.33715186e+03 2.31831396e+03 2.18082349e+03 2.18201367e+03 2.20899463e+03 2.12061719e+03 2.06183716e+03 1.95554895e+03 1.97454675e+03 1.98097009e+03 1.92844861e+03 1.85418274e+03 1.77741235e+03 1.75312708e+03 1.69715198e+03 1.67052344e+03 1.58288525e+03 1.52557153e+03 1.54373364e+03 1.48223560e+03 1.40695276e+03 1.34262903e+03 1.31485657e+03 1.31418628e+03 1.25173450e+03 1.18549243e+03 1.12599023e+03 1.07645630e+03 1.04861804e+03 9.95084290e+02 9.52677185e+02 9.28400940e+02 8.66322083e+02 7.96401123e+02 7.51024414e+02 7.08545349e+02 6.54070435e+02 6.15319031e+02 5.74310852e+02 5.33722046e+02 4.88017914e+02 4.33236938e+02 3.69621521e+02 3.22120087e+02 2.89894073e+02 2.43397156e+02 1.86894104e+02 1.43649643e+02 9.63085327e+01 4.53838310e+01 -1.88630760e+00 -5.06632614e+01 -9.66982803e+01 -1.43341171e+02 -1.92462296e+02 -2.38932327e+02 -2.86343933e+02 -3.36741272e+02 -3.87692413e+02 -4.36835480e+02 -4.77048798e+02 -5.15996277e+02 -5.73286133e+02 -6.33413696e+02 -6.82608459e+02 -7.21323242e+02 -7.50640869e+02 -7.88854187e+02 -8.53528137e+02 -9.17295532e+02 -9.60742554e+02 -9.82485413e+02 -1.03469592e+03 -1.08408325e+03 -1.12282190e+03 -1.21519556e+03 -1.26165747e+03 -1.29369263e+03 -1.33239612e+03 -1.36892310e+03 -1.43703992e+03 -1.46772876e+03 -1.51165210e+03 -1.57262036e+03 -1.59083423e+03 -1.65012073e+03 -1.71187805e+03 -1.71751501e+03 -1.79537720e+03 -1.88060510e+03 -1.91982043e+03 -1.95026440e+03 -1.93072998e+03 -1.98083594e+03 -2.11076343e+03 -2.15336963e+03 -2.10257227e+03 -2.20468262e+03 -2.27946167e+03 -2.26976831e+03 -2.39878418e+03 -2.38849609e+03 -2.35608960e+03 -2.51984766e+03 -2.61038379e+03 -2.55423120e+03 -2.59814648e+03 -2.68315283e+03 -2.66757251e+03 -2.67580664e+03 -2.78761084e+03 -2.79147266e+03 -2.84886060e+03 -2.93689062e+03 -2.92118628e+03 -3.03952344e+03 -3.04030981e+03 -3.07867383e+03 -3.14994434e+03 -3.12299951e+03 -3.23331323e+03 -3.27679492e+03 -3.27231763e+03 -3.37056396e+03 -3.33359814e+03 -3.39488599e+03 -3.53942456e+03 -3.54145801e+03 -3.56659668e+03 -3.58727637e+03 -3.57329053e+03 -3.61118677e+03 -3.76028979e+03 -3.86861377e+03 -3.79770239e+03 -3.87227417e+03 -3.78085669e+03 -3.77562305e+03 -4.06007227e+03 -3.99183911e+03 -3.94625244e+03 -4.05249609e+03 -4.16303809e+03 -4.14015234e+03 -4.05697046e+03 -4.19364404e+03 -4.25622217e+03 -4.31671680e+03 -4.36624707e+03 -4.34781641e+03 -4.24681494e+03 -4.39779736e+03 -4.71341162e+03 -4.63084473e+03 -4.48916211e+03 -4.50362207e+03 -4.53972998e+03 -4.57090723e+03 -4.79749316e+03 -4.78671924e+03 -4.59243799e+03 -4.65356104e+03 -4.83398682e+03 -4.94889209e+03 -4.92281641e+03 -4.95393652e+03 -4.94322461e+03 -5.00990283e+03 -4.99472559e+03 -4.90148340e+03 -5.09839844e+03 -5.16237256e+03 -5.23873145e+03 -5.32372217e+03 -5.12389697e+03 -5.12064795e+03 -5.24795117e+03 -5.17949756e+03 -5.36618164e+03 -5.51426514e+03 -5.38425049e+03 -5.28763428e+03 -5.35113477e+03 -5.48980273e+03 -5.45062598e+03 -5.61121240e+03 -5.72434277e+03 -5.55983057e+03 -5.53226660e+03 -5.48356250e+03 -5.65918164e+03 -5.63650342e+03 -5.58568555e+03 -5.88128516e+03 -5.82631982e+03 -5.96748438e+03 -5.90603223e+03 -5.61411377e+03 -5.81204102e+03 -6.02740918e+03 -6.02814258e+03 -5.89258984e+03
    2.34766992e+03 2.30205688e+03 2.20743091e+03 2.17065625e+03 2.19589282e+03 2.14897266e+03 2.07234131e+03 1.95442847e+03 1.96669788e+03 1.97380591e+03 1.89243945e+03 1.84775256e+03 1.80513013e+03 1.74447681e+03 1.67225220e+03 1.67794690e+03 1.65390552e+03 1.52414026e+03 1.49689441e+03 1.49136938e+03 1.39418457e+03 1.35657947e+03 1.32934863e+03 1.29479797e+03 1.26745215e+03 1.19006750e+03 1.11926013e+03 1.08967920e+03 1.04796106e+03 9.78282715e+02 9.54985840e+02 9.36425598e+02 8.65697021e+02 7.97262268e+02 7.49424988e+02 7.07151917e+02 6.63655212e+02 6.19134094e+02 5.66521118e+02 5.24987915e+02 4.91174957e+02 4.34451904e+02 3.75633362e+02 3.30945953e+02 2.82880707e+02 2.40103363e+02 1.88367493e+02 1.41898651e+02 9.54950790e+01 4.59255943e+01 -1.35309243e+00 -4.88306007e+01 -9.53742065e+01 -1.42612335e+02 -1.93150040e+02 -2.46526520e+02 -2.98487762e+02 -3.34657043e+02 -3.75790070e+02 -4.29632751e+02 -4.75082367e+02 -5.26613708e+02 -5.87540466e+02 -6.21429199e+02 -6.61369324e+02 -7.21761292e+02 -7.60410583e+02 -7.93432068e+02 -8.54190674e+02 -9.16869507e+02 -9.52909180e+02 -9.90475403e+02 -1.04003333e+03 -1.08596216e+03 -1.13951575e+03 -1.20666626e+03 -1.26680042e+03 -1.29647241e+03 -1.31888623e+03 -1.36867798e+03 -1.44806714e+03 -1.47913232e+03 -1.48303772e+03 -1.55293066e+03 -1.60395801e+03 -1.66549121e+03 -1.75941992e+03 -1.73873755e+03 -1.76510913e+03 -1.84903088e+03 -1.90139026e+03 -1.96432690e+03 -1.94675684e+03 -1.99898718e+03 -2.11618286e+03 -2.09898364e+03 -2.10450635e+03 -2.20756763e+03 -2.26841626e+03 -2.34067480e+03 -2.41138477e+03 -2.33191211e+03 -2.32481567e+03 -2.50144946e+03 -2.58642822e+03 -2.56852490e+03 -2.67316089e+03 -2.71328613e+03 -2.60911401e+03 -2.64186182e+03 -2.73863135e+03 -2.82445898e+03 -2.94159399e+03 -2.89866479e+03 -2.88897949e+03 -3.03245337e+03 -3.07278174e+03 -3.11470923e+03 -3.18513892e+03 -3.13697485e+03 -3.17175244e+03 -3.25507007e+03 -3.26709937e+03 -3.35145166e+03 -3.38687354e+03 -3.40781519e+03 -3.48659473e+03 -3.52794849e+03 -3.56734546e+03 -3.58644995e+03 -3.55811548e+03 -3.62002051e+03 -3.81912573e+03 -3.85998755e+03 -3.76710010e+03 -3.83984326e+03 -3.80455103e+03 -3.86737524e+03 -4.03813867e+03 -3.89866626e+03 -3.93669727e+03 -4.12365430e+03 -4.18176904e+03 -4.11286572e+03 -4.08873291e+03 -4.19557568e+03 -4.27473633e+03 -4.27732324e+03 -4.33576758e+03 -4.35908594e+03 -4.30975244e+03 -4.41196240e+03 -4.61132715e+03 -4.63809131e+03 -4.51636768e+03 -4.48261621e+03 -4.64080908e+03 -4.66995508e+03 -4.68028955e+03 -4.65500244e+03 -4.61554639e+03 -4.71741699e+03 -4.89306299e+03 -5.02121777e+03 -4.89755908e+03 -4.80570850e+03 -4.92791211e+03 -5.05160107e+03 -5.02841748e+03 -5.03891016e+03 -5.12146240e+03 -5.18017627e+03 -5.23190234e+03 -5.28850977e+03 -5.11726562e+03 -5.21389111e+03 -5.39587939e+03 -4.96335205e+03 -5.10752100e+03 -5.61096729e+03 -5.53125244e+03 -5.44337891e+03 -5.38775635e+03 -5.33021777e+03 -5.31790625e+03 -5.57261865e+03 -5.85138672e+03 -5.60948340e+03 -5.50291357e+03 -5.43682764e+03 -5.44538818e+03 -5.75613721e+03 -5.88279053e+03 -5.88449756e+03 -5.82352979e+03 -5.84310400e+03 -5.76075977e+03 -5.71113135e+03 -5.84147510e+03 -6.00271924e+03 -6.04022803e+03 -5.95343213e+03
    2.32445117e+03 2.31613330e+03 2.22502173e+03 2.18876855e+03 2.18175073e+03 2.11730542e+03 2.05281567e+03 1.96365283e+03 1.95489343e+03 1.97100500e+03 1.93819580e+03 1.85411401e+03 1.80007947e+03 1.74561548e+03 1.65862952e+03 1.64862512e+03 1.65055591e+03 1.54986633e+03 1.49692456e+03 1.47532959e+03 1.38220996e+03 1.36760339e+03 1.37346643e+03 1.30388867e+03 1.23220300e+03 1.16998047e+03 1.12426123e+03 1.09450281e+03 1.06051196e+03 9.78401245e+02 9.33364197e+02 9.38764099e+02 8.63179199e+02 7.84301025e+02 7.53448486e+02 7.20995728e+02 6.64288025e+02 6.09134033e+02 5.59465393e+02 5.20155640e+02 4.88412323e+02 4.39062347e+02 3.80744659e+02 3.25892731e+02 2.77186676e+02 2.37369949e+02 1.89362442e+02 1.44159973e+02 9.39397736e+01 4.39566154e+01 -1.21701288e+00 -4.85065193e+01 -9.65648117e+01 -1.48603348e+02 -1.96234238e+02 -2.45789185e+02 -2.94633820e+02 -3.27371124e+02 -3.70922241e+02 -4.26609863e+02 -4.87422302e+02 -5.27616577e+02 -5.74695923e+02 -6.12959351e+02 -6.54512573e+02 -7.25155029e+02 -7.77435181e+02 -8.22213379e+02 -8.46695862e+02 -8.92960266e+02 -9.58467590e+02 -9.89941589e+02 -1.05583008e+03 -1.11152734e+03 -1.13093616e+03 -1.18891846e+03 -1.26381934e+03 -1.31051221e+03 -1.32477490e+03 -1.37661426e+03 -1.45356177e+03 -1.44717981e+03 -1.46181726e+03 -1.56324768e+03 -1.61392627e+03 -1.67066199e+03 -1.73494629e+03 -1.72001709e+03 -1.74437915e+03 -1.84753955e+03 -1.91780640e+03 -1.95774756e+03 -1.96994934e+03 -1.99211914e+03 -2.09410962e+03 -2.09622632e+03 -2.13597607e+03 -2.24751050e+03 -2.25795166e+03 -2.30610107e+03 -2.36206689e+03 -2.32138379e+03 -2.36178052e+03 -2.54610815e+03 -2.59937988e+03 -2.56370898e+03 -2.63491479e+03 -2.67551978e+03 -2.58720630e+03 -2.62517310e+03 -2.77961084e+03 -2.86832397e+03 -2.89834229e+03 -2.88746313e+03 -2.91231299e+03 -3.02506421e+03 -3.08549170e+03 -3.16730859e+03 -3.23823340e+03 -3.13884668e+03 -3.10030005e+03 -3.20308496e+03 -3.32605835e+03 -3.41102539e+03 -3.39927881e+03 -3.36151514e+03 -3.48955078e+03 -3.57716626e+03 -3.51894946e+03 -3.55779370e+03 -3.61603345e+03 -3.64418848e+03 -3.80383447e+03 -3.80701489e+03 -3.70531030e+03 -3.89233521e+03 -3.92426489e+03 -3.88759888e+03 -3.97838867e+03 -3.88833813e+03 -3.97661694e+03 -4.16157715e+03 -4.22409717e+03 -4.10476416e+03 -4.05491455e+03 -4.17494092e+03 -4.28012744e+03 -4.31591406e+03 -4.36101221e+03 -4.26350000e+03 -4.27866699e+03 -4.51721045e+03 -4.58397754e+03 -4.52607666e+03 -4.54309277e+03 -4.64387549e+03 -4.64385547e+03 -4.66344385e+03 -4.67398682e+03 -4.57178027e+03 -4.70087646e+03 -4822. -4.89049609e+03 -4.86671045e+03 -4.80577490e+03 -4.84353125e+03 -4.94850439e+03 -5.20644629e+03 -5.14017920e+03 -4.89281934e+03 -4.92458594e+03 -5.11648877e+03 -5.28316846e+03 -5.42525195e+03 -5.16463379e+03 -5.09976270e+03 -5.21730518e+03 -5.11246338e+03 -5.19787500e+03 -5.49334717e+03 -5.69205273e+03 -5.42891211e+03 -5.29519971e+03 -5.28364404e+03 -5.33932812e+03 -5.66425342e+03 -5.77797314e+03 -5.67815771e+03 -5.55214648e+03 -5.38902100e+03 -5.37357422e+03 -5.63632959e+03 -6.01003271e+03 -5.98045557e+03 -5.73822656e+03 -5.74174170e+03 -5.72078076e+03 -5.81025586e+03 -5.87340137e+03 -5.99730664e+03 -6.12703809e+03 -5.89098584e+03
    2.30041724e+03 2.27523340e+03 2.28675708e+03 2.24333740e+03 2.18227954e+03 2.07829077e+03 2.02734656e+03 1.99624500e+03 1.96929529e+03 1.96913843e+03 1.88535291e+03 1.80540063e+03 1.81174243e+03 1.77698364e+03 1.69585461e+03 1.65259290e+03 1.60592590e+03 1.53738123e+03 1.50485767e+03 1.46398108e+03 1.40641284e+03 1.39343945e+03 1.33333826e+03 1.29308301e+03 1.24207446e+03 1.16858362e+03 1.14490039e+03 1.10583069e+03 1.05399731e+03 9.59698792e+02 9.25745178e+02 9.35676819e+02 8.64923462e+02 8.09957153e+02 7.63377747e+02 7.01747131e+02 6.55761230e+02 6.14165955e+02 5.66734375e+02 5.26648560e+02 4.83430756e+02 4.24640137e+02 3.76786285e+02 3.31593262e+02 2.85248169e+02 2.38849396e+02 1.86316620e+02 1.41148575e+02 9.73335266e+01 4.72125511e+01 -1.54297650e+00 -5.05565109e+01 -9.79073639e+01 -1.46119690e+02 -1.90385574e+02 -2.36827774e+02 -2.88445160e+02 -3.22559937e+02 -3.73746002e+02 -4.35697998e+02 -4.83806854e+02 -5.27173767e+02 -5.77042908e+02 -6.20525757e+02 -6.75202942e+02 -7.41129517e+02 -7.70493591e+02 -7.98781189e+02 -8.38217834e+02 -8.98156250e+02 -9.53990295e+02 -1.00386865e+03 -1.05605994e+03 -1.09401184e+03 -1.12186926e+03 -1.17006726e+03 -1.24784521e+03 -1.31881067e+03 -1.34399805e+03 -1.35675061e+03 -1.42165979e+03 -1.42874377e+03 -1.47065735e+03 -1.60336255e+03 -1.63667590e+03 -1.66230371e+03 -1.69886487e+03 -1.72247839e+03 -1.77281665e+03 -1.87105042e+03 -1.92064587e+03 -1.93962109e+03 -1.99418994e+03 -2.00626355e+03 -2.06906689e+03 -2.05034570e+03 -2.12921558e+03 -2.26871118e+03 -2.24824463e+03 -2.29630664e+03 -2.34060815e+03 -2.34888770e+03 -2.41427100e+03 -2.56600806e+03 -2.61172827e+03 -2.53399976e+03 -2.55136060e+03 -2.61979639e+03 -2.64773389e+03 -2.75589771e+03 -2.81271729e+03 -2.83084570e+03 -2.87434399e+03 -2.89336450e+03 -3.00707324e+03 -3.07700220e+03 -3.02135889e+03 -3.09874316e+03 -3.21403662e+03 -3.13813379e+03 -3.08768262e+03 -3.27178394e+03 -3.35428101e+03 -3.38354517e+03 -3.43473267e+03 -3.34056470e+03 -3.44324585e+03 -3.59724829e+03 -3.58649927e+03 -3.54509570e+03 -3.55824146e+03 -3.64352466e+03 -3.79894824e+03 -3.80994702e+03 -3.76345776e+03 -3.84108228e+03 -3.83438354e+03 -3.89315210e+03 -4.00815479e+03 -3.94176831e+03 -3.97763818e+03 -4.15346045e+03 -4.11647168e+03 -4.04465405e+03 -4.09676904e+03 -4.19219434e+03 -4.27697803e+03 -4.28153418e+03 -4.41460547e+03 -4.19055127e+03 -4.17714160e+03 -4.53923633e+03 -4.62168896e+03 -4.68377051e+03 -4.58233057e+03 -4.53104785e+03 -4.51855225e+03 -4.67661328e+03 -4.76367529e+03 -4.54216357e+03 -4.62785742e+03 -4.84533936e+03 -4.86744141e+03 -4.83221094e+03 -4.93012256e+03 -4.94499902e+03 -4.95700439e+03 -5.04044727e+03 -4.98436621e+03 -4.91908496e+03 -4.96528809e+03 -5.22352930e+03 -5.31850000e+03 -5.43034766e+03 -5.10314111e+03 -4.92061182e+03 -5.20895752e+03 -5.19862451e+03 -5.25782275e+03 -5.56034082e+03 -5.59509180e+03 -5.30464795e+03 -5.27315820e+03 -5.32416406e+03 -5.49573828e+03 -5.72196191e+03 -5.74205518e+03 -5.64954492e+03 -5.50262012e+03 -5.42943848e+03 -5.44726953e+03 -5.63365332e+03 -5.95766553e+03 -5.95944629e+03 -5.73838428e+03 -5.60467139e+03 -5.83730566e+03 -6.04831250e+03 -5.85646045e+03 -5.91766992e+03 -5.97484375e+03 -5.86419336e+03
    2.29478857e+03 2.29180151e+03 2.25779053e+03 2.24215356e+03 2.18179199e+03 2.04964868e+03 2.05157642e+03 2.03106812e+03 1.96801855e+03 1.94730847e+03 1.89467273e+03 1.81903064e+03 1.83625342e+03 1.76230701e+03 1.67743652e+03 1.67108057e+03 1.59691992e+03 1.54683374e+03 1.50999609e+03 1.45722144e+03 1.42318591e+03 1.38745337e+03 1.32522559e+03 1.30421533e+03 1.24822131e+03 1.17507581e+03 1.15181702e+03 1.11417456e+03 1.05608362e+03 9.62735718e+02 9.36174438e+02 9.38583984e+02 8.69743530e+02 8.13014160e+02 7.65126160e+02 7.04449524e+02 6.53076233e+02 6.15393616e+02 5.72309082e+02 5.31878235e+02 4.88175934e+02 4.29588593e+02 3.76468201e+02 3.28903778e+02 2.84573578e+02 2.42167816e+02 1.90953903e+02 1.43310059e+02 9.63579788e+01 4.65558014e+01 -1.59959960e+00 -5.14450531e+01 -1.00196602e+02 -1.44807190e+02 -1.91084961e+02 -2.37437775e+02 -2.88362396e+02 -3.30178772e+02 -3.78669464e+02 -4.30792938e+02 -4.81427765e+02 -5.23686157e+02 -5.74313782e+02 -6.24813843e+02 -6.74866516e+02 -7.32909241e+02 -7.62673096e+02 -7.98859070e+02 -8.38804382e+02 -8.98533997e+02 -9.56737366e+02 -9.99498901e+02 -1.05604773e+03 -1.09651294e+03 -1.12332947e+03 -1.18112524e+03 -1.24792285e+03 -1.31627136e+03 -1.35703955e+03 -1.36489612e+03 -1.41946362e+03 -1.44917896e+03 -1.48875305e+03 -1.58888208e+03 -1.63212183e+03 -1.66111133e+03 -1.70701086e+03 -1.73521558e+03 -1.77280798e+03 -1.86394531e+03 -1.92526819e+03 -1.94413928e+03 -1.99711816e+03 -2.02727698e+03 -2.06228125e+03 -2.03312634e+03 -2.12210059e+03 -2.28449072e+03 -2.26211694e+03 -2.29781128e+03 -2.34669629e+03 -2.34680957e+03 -2.40960938e+03 -2.56861963e+03 -2.61642798e+03 -2.53694263e+03 -2.56016479e+03 -2.62180249e+03 -2.64667651e+03 -2.73732275e+03 -2.83029248e+03 -2.81188208e+03 -2.82894629e+03 -2.92968164e+03 -3.02364893e+03 -3.04303418e+03 -3.02680298e+03 -3.10405103e+03 -3.19371484e+03 -3.14452295e+03 -3.09260962e+03 -3.25321216e+03 -3.35341919e+03 -3.40752051e+03 -3.44372095e+03 -3.28515454e+03 -3.43988940e+03 -3.61830713e+03 -3.58345508e+03 -3.56092310e+03 -3.54801196e+03 -3.64557983e+03 -3.80445508e+03 -3.79078784e+03 -3.79692627e+03 -3.86061426e+03 -3.78036743e+03 -3.88196777e+03 -4.01807129e+03 -3.91906616e+03 -4.00793384e+03 -4.17102881e+03 -4.09694238e+03 -4.07430200e+03 -4.10343896e+03 -4.17135791e+03 -4.29833008e+03 -4.30010010e+03 -4.41549805e+03 -4.19705225e+03 -4.20104932e+03 -4.53670850e+03 -4.59692285e+03 -4.69721387e+03 -4.59741602e+03 -4.47664844e+03 -4.52466504e+03 -4.66884033e+03 -4.75315625e+03 -4.62445605e+03 -4.61155176e+03 -4.82449463e+03 -4.87676758e+03 -4.80452588e+03 -4.91346680e+03 -5.01779785e+03 -5.01239941e+03 -4.99982324e+03 -4.97386426e+03 -4.93957422e+03 -4.94550488e+03 -5.20755078e+03 -5.38060498e+03 -5.39026709e+03 -5.13135254e+03 -4.95967822e+03 -5.08724658e+03 -5.29732666e+03 -5.35205176e+03 -5.50575879e+03 -5.58871387e+03 -5.31916260e+03 -5.27796094e+03 -5.36903271e+03 -5.49662646e+03 -5.70299121e+03 -5.74864990e+03 -5.64561670e+03 -5.48647363e+03 -5.41524170e+03 -5.54478711e+03 -5.66319141e+03 -5.85589355e+03 -5.93545264e+03 -5.77605371e+03 -5.61793799e+03 -5.87130225e+03 -5.98806250e+03 -5.85179492e+03 -6.00229541e+03 -5.96502783e+03 -5.86114746e+03
    2.30511328e+03 2.28899805e+03 2.23952026e+03 2.27036597e+03 2.20613794e+03 2.03596887e+03 2.05442188e+03 2.04600720e+03 1.97837024e+03 1.94742053e+03 1.91816699e+03 1.82054211e+03 1.79939270e+03 1.76594714e+03 1.68242078e+03 1.66898767e+03 1.61334094e+03 1.55408960e+03 1.51115686e+03 1.45774109e+03 1.42659534e+03 1.37610144e+03 1.32755762e+03 1.30773450e+03 1.23836572e+03 1.17515308e+03 1.15283435e+03 1.12168591e+03 1.05018994e+03 9.77441284e+02 9.51144165e+02 9.18205383e+02 8.74259216e+02 8.21017090e+02 7.50946167e+02 7.01060913e+02 6.54170471e+02 6.17766113e+02 5.74338318e+02 5.33062927e+02 4.87283783e+02 4.25720306e+02 3.75605682e+02 3.30493988e+02 2.88411041e+02 2.43785950e+02 1.90665512e+02 1.41035538e+02 9.28672485e+01 4.55037689e+01 3.85324210e-01 -4.72068024e+01 -9.79128113e+01 -1.46672852e+02 -1.93685776e+02 -2.37432449e+02 -2.87295013e+02 -3.33870514e+02 -3.80706177e+02 -4.33075226e+02 -4.79626312e+02 -5.28344849e+02 -5.78150391e+02 -6.21824768e+02 -6.78194580e+02 -7.32855896e+02 -7.64282654e+02 -8.00252197e+02 -8.42219910e+02 -9.04744995e+02 -9.50708801e+02 -9.96331116e+02 -1.05780811e+03 -1.09657312e+03 -1.12876721e+03 -1.17973315e+03 -1.24653809e+03 -1.31538037e+03 -1.35946130e+03 -1.37112830e+03 -1.41881824e+03 -1.45679602e+03 -1.50710059e+03 -1.58302295e+03 -1.61312195e+03 -1.66593420e+03 -1.72012756e+03 -1.73123157e+03 -1.76772009e+03 -1.86701624e+03 -1.92181665e+03 -1.95285388e+03 -1.99671021e+03 -2.02185559e+03 -2.06887671e+03 -2.05269360e+03 -2.12419629e+03 -2.27908447e+03 -2.24052490e+03 -2.29362451e+03 -2.37678833e+03 -2.34656689e+03 -2.41104053e+03 -2.56344727e+03 -2.62513525e+03 -2.54619653e+03 -2.57019092e+03 -2.62885718e+03 -2.64635010e+03 -2.73564697e+03 -2.82885864e+03 -2.82205127e+03 -2.80329858e+03 -2.91723584e+03 -3.04675806e+03 -3.05745020e+03 -3.03626367e+03 -3.12077026e+03 -3.20149268e+03 -3.10526831e+03 -3.11835400e+03 -3.28578394e+03 -3.31999341e+03 -3.40158838e+03 -3.41489355e+03 -3.29432227e+03 -3.46783643e+03 -3.62151050e+03 -3.61715625e+03 -3.58628833e+03 -3.53204053e+03 -3.64071460e+03 -3.80054370e+03 -3.82056982e+03 -3.78956616e+03 -3.81813257e+03 -3.79639185e+03 -3.90433325e+03 -4.03728467e+03 -3.93161426e+03 -4.01501636e+03 -4.11919238e+03 -4.10793848e+03 -4.15082764e+03 -4.06422485e+03 -4.14650244e+03 -4.33556641e+03 -4.31680176e+03 -4.41680762e+03 -4.22487402e+03 -4.26732568e+03 -4.50527197e+03 -4.54559180e+03 -4.74954883e+03 -4.55086768e+03 -4.48590771e+03 -4.52110693e+03 -4.62325586e+03 -4.79600488e+03 -4.66507910e+03 -4.62237793e+03 -4.80143213e+03 -4.85881982e+03 -4.82201562e+03 -4.92294580e+03 -5.03555713e+03 -5.03600537e+03 -5.03039404e+03 -4.98802881e+03 -4.95330957e+03 -4.94451514e+03 -5.17813916e+03 -5.39540430e+03 -5.37460547e+03 -5.11847998e+03 -4.90581250e+03 -5.14848438e+03 -5.29507080e+03 -5.36423193e+03 -5.57901709e+03 -5.52437695e+03 -5.32743945e+03 -5.26906543e+03 -5.35221094e+03 -5.51401807e+03 -5.72757764e+03 -5.74447461e+03 -5.63396582e+03 -5.48839648e+03 -5.42028467e+03 -5.57593311e+03 -5.64315771e+03 -5.84019531e+03 -6.01245898e+03 -5.72550879e+03 -5.60193555e+03 -5.86711572e+03 -5.94292285e+03 -5.93221191e+03 -6.03131299e+03 -5.90168115e+03 -5.84606982e+03
    2.29528174e+03 2.28533301e+03 2.28755835e+03 2.27865967e+03 2.18310449e+03 2.02049780e+03 2.04411328e+03 2.06667334e+03 1.97337256e+03 1.94769031e+03 1.91686804e+03 1.81268042e+03 1.81535022e+03 1.75338525e+03 1.66931006e+03 1.67533032e+03 1.65329626e+03 1.57557556e+03 1.47428503e+03 1.43410913e+03 1.41877124e+03 1.38873621e+03 1.37039465e+03 1.30780383e+03 1.23193896e+03 1.17281799e+03 1.13695886e+03 1.12549854e+03 1.06074500e+03 1.00068005e+03 9.47021240e+02 9.00040588e+02 8.80587646e+02 8.17973267e+02 7.54685364e+02 7.14515747e+02 6.78947266e+02 6.16857483e+02 5.53307190e+02 5.25841797e+02 4.85214294e+02 4.34613525e+02 3.87666931e+02 3.31073059e+02 2.80249664e+02 2.38215668e+02 1.93203918e+02 1.45395309e+02 9.38273239e+01 4.47238922e+01 -2.19066095e+00 -4.97740135e+01 -1.00631462e+02 -1.46379776e+02 -1.90068985e+02 -2.36555145e+02 -2.89799408e+02 -3.33980225e+02 -3.73073334e+02 -4.27747040e+02 -4.85135101e+02 -5.38584229e+02 -5.83403931e+02 -6.11121338e+02 -6.60585571e+02 -7.34309753e+02 -7.87530029e+02 -8.34069885e+02 -8.37587097e+02 -8.79885132e+02 -9.57021484e+02 -1.00924127e+03 -1.07241797e+03 -1.10886523e+03 -1.13441431e+03 -1.17345959e+03 -1.25837341e+03 -1.32680750e+03 -1.34265222e+03 -1.37713000e+03 -1.42148120e+03 -1.45796985e+03 -1.49739709e+03 -1.55284949e+03 -1.61059900e+03 -1.69577515e+03 -1.75334253e+03 -1.73777527e+03 -1.73670386e+03 -1.83794714e+03 -1.91621326e+03 -1.97357532e+03 -2.02434753e+03 -2.03904749e+03 -2.05677563e+03 -2.04279492e+03 -2.17635327e+03 -2.28165796e+03 -2.22290503e+03 -2.32533667e+03 -2.37363135e+03 -2.28946118e+03 -2.39625073e+03 -2.60264746e+03 -2.62697900e+03 -2.52949243e+03 -2.61511035e+03 -2.62616895e+03 -2.55379956e+03 -2.71492212e+03 -2.87272974e+03 -2.86678516e+03 -2.83120068e+03 -2.89580249e+03 -3.01317920e+03 -3.03751660e+03 -3.09394434e+03 -3.24277686e+03 -3.24946021e+03 -3.10478833e+03 -3.10037402e+03 -3.22720752e+03 -3.33686450e+03 -3.41087622e+03 -3.45098535e+03 -3.30465869e+03 -3.43453979e+03 -3.67177832e+03 -3.58390894e+03 -3.55240015e+03 -3.55859277e+03 -3.68916382e+03 -3.80749512e+03 -3.76115381e+03 -3.72994556e+03 -3.89058887e+03 -3.96303735e+03 -3.94776074e+03 -3.95178589e+03 -3.89311279e+03 -4.03243481e+03 -4.15427979e+03 -4.21921631e+03 -4.22204785e+03 -4.03827539e+03 -4.07645288e+03 -4.31119629e+03 -4.37742822e+03 -4.35730811e+03 -4.32651807e+03 -4.35233203e+03 -4.45164648e+03 -4.51129150e+03 -4.63562646e+03 -4.55370508e+03 -4.58654932e+03 -4.67416553e+03 -4.67176025e+03 -4.61746631e+03 -4.64163525e+03 -4.76662549e+03 -4.85993848e+03 -4.92487354e+03 -4.76308154e+03 -4.76451074e+03 -4.96378467e+03 -5.13839746e+03 -5.21077051e+03 -5.12248145e+03 -4.93380273e+03 -4.80204541e+03 -5.09804004e+03 -5.50798438e+03 -5.43617871e+03 -5.18741357e+03 -5.01435400e+03 -5.07900781e+03 -5.16536670e+03 -5.33306543e+03 -5.58438770e+03 -5.66334229e+03 -5.53509521e+03 -5.20189844e+03 -5.18765039e+03 -5.47408447e+03 -5.72534082e+03 -5.90418262e+03 -5.79974268e+03 -5.40490381e+03 -5.20852441e+03 -5.50546094e+03 -5.83722803e+03 -6.10596680e+03 -6.06690674e+03 -5.61573535e+03 -5.43921338e+03 -5.78634570e+03 -6.01626904e+03 -6.04887988e+03 -6.15290869e+03 -5.93199414e+03 -5.76422656e+03
    2.31011743e+03 2.27110596e+03 2.29767212e+03 2.33754346e+03 2.20709570e+03 2.05372607e+03 2.01333679e+03 2.01636731e+03 1.99550220e+03 1.98529517e+03 1.97381421e+03 1.82120276e+03 1.77404089e+03 1.78589551e+03 1.70231177e+03 1.66241858e+03 1.62819714e+03 1.58200354e+03 1.51537305e+03 1.45278357e+03 1.43414160e+03 1.38271411e+03 1.36776978e+03 1.32395630e+03 1.21886389e+03 1.17432922e+03 1.15195007e+03 1.12288110e+03 1.07212805e+03 1.00544580e+03 9.51606201e+02 9.09322021e+02 8.76975891e+02 8.30509521e+02 7.57437134e+02 7.14351868e+02 6.75622803e+02 6.09688477e+02 5.62242981e+02 5.37566162e+02 4.88406708e+02 4.32765289e+02 3.85257782e+02 3.26738678e+02 2.85609833e+02 2.45006454e+02 1.93727600e+02 1.47282486e+02 9.56208191e+01 4.53619041e+01 -2.05521417e+00 -5.09904633e+01 -1.02501114e+02 -1.54170883e+02 -1.92896484e+02 -2.31091721e+02 -2.86664398e+02 -3.35936981e+02 -3.83856140e+02 -4.36291748e+02 -4.91373260e+02 -5.37164246e+02 -5.73225708e+02 -6.16809265e+02 -6.77158142e+02 -7.36023682e+02 -7.84069702e+02 -8.30526184e+02 -8.41588013e+02 -8.86023682e+02 -9.62068542e+02 -1.00586334e+03 -1.07121167e+03 -1.12789954e+03 -1.13368066e+03 -1.17085474e+03 -1.26732788e+03 -1.33336072e+03 -1.36132690e+03 -1.38882166e+03 -1.42231348e+03 -1.43482666e+03 -1.52486450e+03 -1.58494189e+03 -1.60269055e+03 -1.69571277e+03 -1.71418616e+03 -1.72827832e+03 -1.77671851e+03 -1.88611084e+03 -1.94369092e+03 -1.97025696e+03 -2.01043201e+03 -2.00254565e+03 -2.07102954e+03 -2.12837378e+03 -2.18463672e+03 -2.27654688e+03 -2.23242969e+03 -2.26237939e+03 -2.37403564e+03 -2.36029712e+03 -2.45805884e+03 -2.62484326e+03 -2.63119458e+03 -2.53762305e+03 -2.56035132e+03 -2.61184424e+03 -2.62057910e+03 -2.77254102e+03 -2.90438428e+03 -2.87541846e+03 -2.81110010e+03 -2.88607959e+03 -3.04621338e+03 -3.07216089e+03 -3.10906372e+03 -3.19604883e+03 -3.21880981e+03 -3.13268457e+03 -3.16438452e+03 -3.25071875e+03 -3.33085010e+03 -3.45471436e+03 -3.44370874e+03 -3.33736426e+03 -3.48067822e+03 -3.66506909e+03 -3.59630054e+03 -3.57649634e+03 -3.59690454e+03 -3.67290405e+03 -3.78746948e+03 -3.79506738e+03 -3.72781592e+03 -3.90280664e+03 -3.98199219e+03 -3.94013745e+03 -3.99981055e+03 -3.99366675e+03 -4.04632080e+03 -4.09731885e+03 -4.22700391e+03 -4.21397510e+03 -4.03434814e+03 -4.11462793e+03 -4.33233643e+03 -4.42425537e+03 -4.40598486e+03 -4.25413281e+03 -4.33354980e+03 -4.51837549e+03 -4.58857227e+03 -4.62725635e+03 -4.54742090e+03 -4.68186719e+03 -4.60456104e+03 -4.63934277e+03 -4.76845215e+03 -4.67292578e+03 -4.78356494e+03 -4.84672412e+03 -4.91312646e+03 -4.69448145e+03 -4.75715576e+03 -5.15118652e+03 -5.15410742e+03 -5.21955762e+03 -5.08718115e+03 -4.84192480e+03 -4.84806689e+03 -5.13530713e+03 -5.47604492e+03 -5.57664648e+03 -5.19794336e+03 -4.89390625e+03 -5.09522510e+03 -5.33013477e+03 -5.49521631e+03 -5.61465771e+03 -5.54299316e+03 -5.36735791e+03 -5206. -5.39612402e+03 -5.58234961e+03 -5.73579346e+03 -5.89914502e+03 -5.78365723e+03 -5.40473096e+03 -5.27109912e+03 -5.66699805e+03 -5.79518359e+03 -5.96209717e+03 -6.08736182e+03 -5.64479785e+03 -5.53537305e+03 -5.84349414e+03 -6.09454541e+03 -6.10704688e+03 -5.99152393e+03 -5.92521729e+03 -5.80454443e+03
    2.32384814e+03 2.29598779e+03 2.36444482e+03 2.31176611e+03 2.20281250e+03 2.09308276e+03 2.03983545e+03 2.05487646e+03 2.01109607e+03 1.98750122e+03 1.92783508e+03 1.83642822e+03 1.85418530e+03 1.78885913e+03 1.70102490e+03 1.67513721e+03 1.67102100e+03 1.61939111e+03 1.51547705e+03 1.46075244e+03 1.45124817e+03 1.39697412e+03 1.35298560e+03 1.31996680e+03 1.25289233e+03 1.19299500e+03 1.17109839e+03 1.12441602e+03 1.06479126e+03 1.01751056e+03 9.56055359e+02 9.16821106e+02 8.74502747e+02 8.47650330e+02 7.83156616e+02 7.13848145e+02 6.88807312e+02 6.24611816e+02 5.62196777e+02 5.33278748e+02 4.91042603e+02 4.41841858e+02 3.92747681e+02 3.35165070e+02 2.85589325e+02 2.43025330e+02 1.96438873e+02 1.47379272e+02 9.59862900e+01 4.66338921e+01 -2.42666984e+00 -5.09802475e+01 -1.03308784e+02 -1.51873108e+02 -1.94691895e+02 -2.36729874e+02 -2.97998077e+02 -3.40720062e+02 -3.71881592e+02 -4.26954895e+02 -4.97313873e+02 -5.57078613e+02 -5.88852478e+02 -6.14459473e+02 -6.67688049e+02 -7.44672913e+02 -8.00375977e+02 -8.36846130e+02 -8.52011353e+02 -9.00519958e+02 -9.81559326e+02 -1.02774500e+03 -1.07686511e+03 -1.11263770e+03 -1.14516516e+03 -1.19428699e+03 -1.29763062e+03 -1.35286755e+03 -1.34922339e+03 -1.39451318e+03 -1.44316101e+03 -1.45629810e+03 -1.53055713e+03 -1.57119604e+03 -1.61889539e+03 -1.74402136e+03 -1.77386731e+03 -1.78243677e+03 -1.76695642e+03 -1.83399854e+03 -1.95688818e+03 -2.00684924e+03 -2.03335815e+03 -2.05595825e+03 -2.08659351e+03 -2.10275024e+03 -2.20253076e+03 -2.31219067e+03 -2.26837646e+03 -2.34059009e+03 -2.39286768e+03 -2.30631348e+03 -2.43978296e+03 -2.63769067e+03 -2.63729102e+03 -2.58592407e+03 -2.64420557e+03 -2.66162207e+03 -2.60728784e+03 -2.74463184e+03 -2.91826855e+03 -2.93644775e+03 -2.92234082e+03 -2.93297168e+03 -3.00260645e+03 -3.06298877e+03 -3.17033081e+03 -3.29075928e+03 -3.24908838e+03 -3.18261133e+03 -3.15347168e+03 -3.24990723e+03 -3.40262573e+03 -3.45493188e+03 -3.48213184e+03 -3.39663452e+03 -3.50509106e+03 -3.68335669e+03 -3.59822559e+03 -3.62814819e+03 -3.62804517e+03 -3.71061230e+03 -3.87312817e+03 -3.81288721e+03 -3.76535986e+03 -3.96677466e+03 -4.04747729e+03 -3.99207178e+03 -4.00669946e+03 -3.96609399e+03 -4.06582935e+03 -4.19640479e+03 -4.29091455e+03 -4.26335352e+03 -4.15687012e+03 -4.15245605e+03 -4.32895898e+03 -4.42604004e+03 -4.37912598e+03 -4.41352637e+03 -4.38876611e+03 -4.52042236e+03 -4.64032861e+03 -4.64775977e+03 -4.65894141e+03 -4.68561230e+03 -4.75563184e+03 -4.74466016e+03 -4.63574121e+03 -4.67094824e+03 -4.84002539e+03 -4.97478027e+03 -5.05247656e+03 -4.78471289e+03 -4.69975586e+03 -5.07163623e+03 -5.27858496e+03 -5.32333984e+03 -5.14148291e+03 -4.92731885e+03 -4.93784424e+03 -5.21361865e+03 -5.54976416e+03 -5.60130127e+03 -5.21401123e+03 -5.04263965e+03 -5.20049561e+03 -5.20564258e+03 -5.38538184e+03 -5.65777148e+03 -5.73045508e+03 -5.60480225e+03 -5.29080664e+03 -5.31871582e+03 -5.46643018e+03 -5.77377832e+03 -6.07209717e+03 -5.87791895e+03 -5.40441943e+03 -5.22216992e+03 -5.64951953e+03 -6.00388428e+03 -6.20843701e+03 -6.19415137e+03 -5.68795752e+03 -5.48188086e+03 -5.86396436e+03 -6.23343311e+03 -6.05728906e+03 -6.12540234e+03 -6.05876123e+03 -5.84182227e+03</data></ring32_3>
</opencv_storage>
