<?xml version="1.0"?>
<opencv_storage>
<ring32_0 type_id="opencv-matrix">
  <rows>30</rows>
  <cols>209</cols>
  <dt>f</dt>
  <data>
    7.83452197e+03 7.79328711e+03 7.65204199e+03 7.73318066e+03 7.86318311e+03 8.06212207e+03 8.17667871e+03 7.95797412e+03 7.85308105e+03 8.08449707e+03 8.29925488e+03 8.19684375e+03 8.35110156e+03 8.41794434e+03 8.47150977e+03 8.74506152e+03 8.48353711e+03 8.35114453e+03 8.55919922e+03 8.70012793e+03 8.80278613e+03 8.55727734e+03 8.48268359e+03 8.91354590e+03 9.30570508e+03 9.20715527e+03 8.97280273e+03 9.05384766e+03 8.92949609e+03 8.98782520e+03 9.41141211e+03 9.75033008e+03 9.37846484e+03 9.19083008e+03 9.52784863e+03 9.38240332e+03 9.67724414e+03 9.70424902e+03 9.30531152e+03 9.72108984e+03 1.00668828e+04 9.67303320e+03 9.52356934e+03 9.85625684e+03 1.03301836e+04 1.03689707e+04 9.78049609e+03 9.83759961e+03 1.02757344e+04 1.04814004e+04 1.05260889e+04 1.02121338e+04 1.01592041e+04 1.02807109e+04 1.06079023e+04 1.08695684e+04 1.05914150e+04 1.05280723e+04 1.07381406e+04 1.08740117e+04 1.06276475e+04 1.06952090e+04 1.08685205e+04 1.08627441e+04 1.11530039e+04 1.11091104e+04 1.08630283e+04 1.10166328e+04 1.12411826e+04 1.14100127e+04 1.15751270e+04 1.13501162e+04 1.15299766e+04 1.14365137e+04 1.09604922e+04 1.12187627e+04 1.15303086e+04 1.15214307e+04 1.15909854e+04 1.16157969e+04 1.19287227e+04 1.21694238e+04 1.15409102e+04 1.15533154e+04 1.20384658e+04 1.23020986e+04 1.22206875e+04 1.16095850e+04 1.15743770e+04 1.23067109e+04 1.27875879e+04 1.21737910e+04 1.17312725e+04 1.20585186e+04 1.26639961e+04 1.29254697e+04 1.22807793e+04 1.21953623e+04 1.21866328e+04 1.25986055e+04 1.29729160e+04 1.24392549e+04 1.25142598e+04 1.25527041e+04 1.25558545e+04 1.29311201e+04 1.33736006e+04 1.29282109e+04 1.23902070e+04 1.32059102e+04 1.37940371e+04 1.29771973e+04 1.24512119e+04 1.29104141e+04 1.32825156e+04 1.31142842e+04 1.29088809e+04 1.30556436e+04 1.31290576e+04 1.35703945e+04 1.39411719e+04 1.34122070e+04 1.33397969e+04 1.33192295e+04 1.36280195e+04 1.38217217e+04 1.33296387e+04 1.35680127e+04 1.35905859e+04 13388. 1.37771582e+04 1.40492002e+04 1.36665645e+04 1.36215068e+04 1.41122646e+04 1.42063574e+04 1.37766768e+04 1.35597666e+04 1.37805459e+04 1.40303408e+04 1.41874395e+04 1.38868682e+04 1.38327061e+04 1.40884453e+04 1.44695635e+04 1.45914170e+04 1.41476426e+04 1.44424355e+04 1.44706426e+04 1.39251250e+04 1.39333125e+04 1.42098574e+04 1.46464609e+04 1.45399834e+04 1.41740537e+04 1.41694336e+04 1.44551768e+04 1.49078613e+04 1.48435020e+04 1.44959355e+04 1.45521611e+04 1.43803633e+04 1.41996650e+04 1.44777246e+04 1.48757773e+04 1.49711836e+04 1.45127695e+04 1.44627764e+04 1.47179893e+04 1.48194482e+04 1.49823652e+04 1.49579092e+04 1.51065254e+04 1.48725127e+04 1.45168262e+04 1.45806885e+04 1.46663076e+04 1.51816406e+04 1.55995957e+04 1.50302412e+04 1.42972598e+04 1.45984766e+04 1.51024883e+04 1.50062451e+04 1.52339248e+04 1.53543623e+04 1.49380049e+04 1.50955508e+04 1.53124062e+04 1.50915146e+04 1.50861299e+04 1.50424111e+04 1.51275322e+04 1.51078291e+04 1.48999131e+04 1.50968672e+04 1.54541133e+04 1.57630117e+04 1.53229326e+04 1.48639834e+04 1.50283359e+04 1.53275635e+04 1.54996016e+04 1.54538311e+04 1.52096631e+04 1.49891084e+04 1.52627002e+04 1.55239707e+04 1.54657607e+04
    7.47086719e+03 7.53206738e+03 7.67815430e+03 7.79037793e+03 7.93465039e+03 7.92753076e+03 7.80009424e+03 7.79318018e+03 7.83505225e+03 8.01159814e+03 8.15516895e+03 8.10838184e+03 8.19491602e+03 8.27628613e+03 8.44905176e+03 8.65477832e+03 8.29145605e+03 8.28509570e+03 8.44841797e+03 8.52367090e+03 8.79528223e+03 8.68791504e+03 8.41479492e+03 8.77427734e+03 9.08933984e+03 8.97536133e+03 8.89775781e+03 8.95677051e+03 8.96427539e+03 9.10133887e+03 9.11480273e+03 9.38590137e+03 9.38245996e+03 9.21273633e+03 9.41300293e+03 9.14388965e+03 9.44648242e+03 9.74278516e+03 9.40287891e+03 9.55987109e+03 9.72645996e+03 9.64615820e+03 9.38978223e+03 9.53724512e+03 1.01980391e+04 1.03896260e+04 9.73891113e+03 9.69565820e+03 1.01400996e+04 1.02305645e+04 1.02839658e+04 9.98334863e+03 9.95140723e+03 1.03731396e+04 1.07813486e+04 1.06023838e+04 1.02692178e+04 1.04897568e+04 1.06383613e+04 1.06214551e+04 1.03780244e+04 1.04257305e+04 1.07026787e+04 1.08633193e+04 1.10009287e+04 1.10266143e+04 1.09004629e+04 1.07841182e+04 1.09220967e+04 1.13535049e+04 1.14454102e+04 1.11804395e+04 1.13338486e+04 1.13431396e+04 1.10314551e+04 1.12208711e+04 1.13486211e+04 1.13826387e+04 1.16156807e+04 1.15718564e+04 1.14837588e+04 1.17964336e+04 1.16617783e+04 1.15729736e+04 1.18917930e+04 1.20254961e+04 1.19625762e+04 1.15205908e+04 1.14487383e+04 1.19894844e+04 1.25355293e+04 1.22106143e+04 1.15461816e+04 1.17600127e+04 1.25534365e+04 1.27797207e+04 1.19570020e+04 1.19136631e+04 1.22426787e+04 1.26235723e+04 1.28425254e+04 1.21720703e+04 1.21718525e+04 1.26446514e+04 1.28061562e+04 1.25465986e+04 1.28732510e+04 1.28992021e+04 1.24835508e+04 1.31255176e+04 1.34226514e+04 1.26205410e+04 1.21717109e+04 1.26423428e+04 1.30907568e+04 1.29798203e+04 1.29837451e+04 1.29380508e+04 1.28239521e+04 13428. 1.38263604e+04 1.31312070e+04 1.29083291e+04 1.33744766e+04 1.39083828e+04 1.35784805e+04 1.30429639e+04 1.34613125e+04 1.35040293e+04 1.32486387e+04 1.33731406e+04 1.36936973e+04 1.36301748e+04 1.35308232e+04 1.38704238e+04 1.38933584e+04 1.37250254e+04 1.33704678e+04 1.33840703e+04 1.38042012e+04 1.39064131e+04 1.38120264e+04 1.38355078e+04 1.39424980e+04 1.43178730e+04 1.43898691e+04 1.38367891e+04 1.40027188e+04 1.43762383e+04 1.42247354e+04 1.39900098e+04 1.39202939e+04 1.42708652e+04 1.42502314e+04 1.41417363e+04 1.39943047e+04 1.42534258e+04 1.46919932e+04 1.45004023e+04 1.43611191e+04 1.43756084e+04 1.44891357e+04 1.42586064e+04 1.39619658e+04 1.43027988e+04 1.46528848e+04 1.46686279e+04 1.45656787e+04 1.43172441e+04 1.44319727e+04 1.47546133e+04 1.49092422e+04 1.50073477e+04 1.46181904e+04 1.44716426e+04 1.43200020e+04 1.45119014e+04 1.52066152e+04 1.50923799e+04 1.47339590e+04 1.42193164e+04 1.45300205e+04 1.51181387e+04 1.47372705e+04 1.48921846e+04 1.48650293e+04 1.47012832e+04 1.50997100e+04 1.49762549e+04 1.47995381e+04 1.49500518e+04 1.51850469e+04 1.50767100e+04 1.46067549e+04 1.46005234e+04 1.48782100e+04 1.52014443e+04 1.54735537e+04 1.51109805e+04 1.49403701e+04 1.49189326e+04 1.50248115e+04 1.53265303e+04 1.51723936e+04 1.49906719e+04 1.47886865e+04 1.50629521e+04 1.53297715e+04 1.52324004e+04
    7.21671338e+03 7.24710986e+03 7.16879297e+03 7.24033838e+03 7.40095117e+03 7.55448242e+03 7.62093457e+03 7.43462012e+03 7.31291162e+03 7.57556250e+03 7.73779297e+03 7.67125293e+03 7.80217578e+03 7.87024561e+03 7.91586523e+03 8.19171191e+03 7.93737305e+03 7.82232617e+03 8.04703369e+03 8.10672949e+03 8.23491797e+03 8.04669482e+03 7.96407471e+03 8.29924902e+03 8.69928711e+03 8.59050293e+03 8.40308691e+03 8.43480859e+03 8.38064258e+03 8.42484570e+03 8.75521484e+03 9.05347266e+03 8.79730371e+03 8.61271094e+03 8.88775293e+03 8.75840234e+03 9.03566699e+03 9.09041113e+03 8.69371387e+03 9.05508301e+03 9.33289551e+03 9.03324805e+03 8.91455957e+03 9.17675391e+03 9.68077930e+03 9.74017871e+03 9.10492285e+03 9.17596484e+03 9.54064062e+03 9.82332227e+03 9.78995410e+03 9.52831445e+03 9.54193848e+03 9.61559863e+03 9.90240039e+03 1.01277666e+04 9.90713379e+03 9.86722852e+03 1.00218223e+04 1.01342725e+04 9.93442969e+03 9.98840625e+03 1.00954297e+04 1.01605400e+04 1.04493252e+04 1.04035654e+04 1.01679082e+04 1.02430215e+04 1.04635732e+04 1.06357412e+04 1.08060273e+04 1.06322861e+04 1.07968223e+04 1.06702695e+04 1.02539189e+04 1.04763057e+04 1.07991113e+04 1.07489131e+04 1.08361367e+04 1.09146387e+04 1.11186836e+04 1.12934160e+04 1.08032588e+04 1.07651748e+04 1.11988369e+04 1.14882422e+04 1.14511094e+04 1.08921006e+04 1.08225850e+04 1.14758271e+04 1.18992637e+04 1.13620332e+04 1.09512471e+04 1.12456016e+04 1.18020664e+04 1.20901035e+04 1.14844258e+04 1.13808535e+04 1.14164580e+04 1.17811348e+04 1.21457002e+04 1.15968682e+04 1.16773213e+04 1.18006709e+04 1.17354277e+04 1.20433271e+04 1.24956689e+04 1.21222061e+04 1.16033252e+04 1.23018350e+04 1.28169697e+04 1.21391934e+04 1.15917891e+04 1.20188525e+04 1.24629648e+04 1.22567461e+04 1.20773242e+04 1.21871797e+04 1.22513691e+04 1.26942812e+04 1.30111660e+04 1.24992031e+04 1.24315938e+04 1.24546797e+04 1.27545342e+04 1.29105420e+04 1.23945762e+04 1.26256787e+04 1.27238877e+04 1.25434863e+04 1.28865264e+04 1.30635186e+04 1.27481309e+04 1.27615391e+04 1.31923154e+04 1.32387764e+04 1.28665732e+04 1.26765889e+04 1.28119316e+04 1.31092773e+04 1.32881201e+04 1.29722373e+04 1.29436621e+04 1.31765068e+04 1.35505977e+04 1.36808203e+04 1.31960420e+04 1.33957207e+04 1.35108223e+04 1.30390400e+04 1.30286934e+04 1.32645820e+04 1.36603682e+04 1.35782139e+04 1.32437734e+04 1.32184355e+04 1.35065664e+04 1.39053252e+04 1.38700488e+04 1.35525107e+04 1.35668613e+04 1.34365723e+04 1.32781504e+04 1.34725996e+04 1.38518594e+04 1.39908721e+04 1.35995967e+04 1.35641064e+04 1.37167930e+04 1.37847871e+04 1.40136738e+04 1.39823311e+04 1.40991553e+04 1.39115312e+04 1.35612051e+04 1.35895430e+04 1.36872959e+04 1.42013018e+04 1.45515137e+04 1.40151035e+04 1.33590254e+04 1.36705557e+04 1.41137764e+04 1.39822832e+04 1.42230723e+04 1.43118623e+04 1.39524277e+04 1.41178389e+04 1.42950713e+04 1.40997998e+04 1.40674414e+04 1.40789541e+04 1.41713213e+04 1.41104814e+04 1.39274648e+04 1.40662764e+04 1.43941973e+04 1.46959326e+04 1.43030781e+04 1.39428506e+04 1.40490469e+04 1.42749854e+04 1.44735889e+04 1.44105547e+04 1.41782246e+04 1.40044727e+04 1.43022354e+04 1.45198340e+04 1.44231016e+04
    6.90781445e+03 6.98607568e+03 7.17299219e+03 7.23496436e+03 7.37758887e+03 7.35526318e+03 7.24787939e+03 7.22242480e+03 7.27537402e+03 7.40825098e+03 7.53907715e+03 7.51893115e+03 7.64310059e+03 7.65449658e+03 7.91916406e+03 8.02643359e+03 7.71975635e+03 7.71352393e+03 7.83847510e+03 7.92809277e+03 8.17811768e+03 8.05776953e+03 7.81248584e+03 8.12683496e+03 8.41653125e+03 8.29728809e+03 8.24315723e+03 8.26707910e+03 8.36623438e+03 8.40564746e+03 8.41304199e+03 8.69467285e+03 8.71112402e+03 8.52686816e+03 8.71594531e+03 8.51853516e+03 8.73628418e+03 9.00667969e+03 8.67523145e+03 8.85621289e+03 9.09215723e+03 8.91482715e+03 8.68078418e+03 8.89147852e+03 9.48123145e+03 9.55404688e+03 8.95467090e+03 9.04550977e+03 9.44975195e+03 9.48634082e+03 9.53778613e+03 9.25378418e+03 9.23603613e+03 9.60979688e+03 9.96241797e+03 9.83227344e+03 9.55498145e+03 9.73688672e+03 9.89828027e+03 9.90427539e+03 9.66159863e+03 9.69700195e+03 9.93276074e+03 1.00288418e+04 1.02002002e+04 1.02719727e+04 1.01173555e+04 9.97883691e+03 1.01449404e+04 1.05188545e+04 1.05796533e+04 1.03784131e+04 1.05288896e+04 1.05409121e+04 1.02376904e+04 1.03712861e+04 1.05514727e+04 1.05582129e+04 1.08217959e+04 1.07580811e+04 1.05855850e+04 1.08958223e+04 1.08334131e+04 1.07244463e+04 1.10342266e+04 1.11818818e+04 1.11002852e+04 1.07254170e+04 1.06492734e+04 1.10883662e+04 1.16361611e+04 1.13249873e+04 1.06986104e+04 1.09084092e+04 1.16837305e+04 1.18511807e+04 1.10840781e+04 1.10262539e+04 1.13300762e+04 1.17370469e+04 1.19278203e+04 1.12968984e+04 1.12756621e+04 1.17349600e+04 1.18353438e+04 1.16387217e+04 1.19389609e+04 1.19643398e+04 1.15711377e+04 1.21681572e+04 1.24110322e+04 1.17259902e+04 1.12507695e+04 1.16771494e+04 1.21681768e+04 1.20728057e+04 1.20670273e+04 1.19910176e+04 1.18873682e+04 1.24823477e+04 1.28406260e+04 1.21578701e+04 1.19638555e+04 1.24099062e+04 1.28824121e+04 1.26042930e+04 1.20791016e+04 1.24506504e+04 1.25340195e+04 1.23051250e+04 1.23867627e+04 1.26848379e+04 1.26662383e+04 1.25661729e+04 1.28791348e+04 1.28453887e+04 1.27444268e+04 1.24059990e+04 1.23758311e+04 1.28341504e+04 1.29308145e+04 1.27830889e+04 1.28464707e+04 1.29227871e+04 1.32692217e+04 1.33971230e+04 1.28135752e+04 1.29811289e+04 1.33269277e+04 1.31968848e+04 1.29764004e+04 1.29296895e+04 1.32283496e+04 1.32106455e+04 1.31128535e+04 1.29520537e+04 1.31951230e+04 1.36304346e+04 1.34677139e+04 1.33516768e+04 1.33117012e+04 1.34313428e+04 1.32646055e+04 1.29194307e+04 1.32224238e+04 1.35894424e+04 1.36163008e+04 1.35351348e+04 1.32916465e+04 1.33403379e+04 1.36708984e+04 1.38377812e+04 1.39226924e+04 1.35979131e+04 1.34184727e+04 1.32532402e+04 1.34319170e+04 1.41225918e+04 1.40212959e+04 1.36511416e+04 1.31853213e+04 1.35064336e+04 1.40042285e+04 1.36724746e+04 1.38492949e+04 1.37644697e+04 1.36229062e+04 1.40244453e+04 1.38917783e+04 1.37283604e+04 1.38537939e+04 1.40934473e+04 1.40014053e+04 1.35513564e+04 1.35547822e+04 1.37916416e+04 1.40847861e+04 1.43292480e+04 1.40047520e+04 1.38932832e+04 1.38283252e+04 1.39178320e+04 1.42346504e+04 1.40665283e+04 1.38815996e+04 1.37261260e+04 1.39923535e+04 1.42316240e+04 1.41339043e+04
    7.00134863e+03 7.10247998e+03 6.98558740e+03 7.03609717e+03 7.16241846e+03 7.31126953e+03 7.41445947e+03 7.21492529e+03 7.13425195e+03 7.32500244e+03 7.48579053e+03 7.45671729e+03 7.61541748e+03 7.62850635e+03 7.75076953e+03 8.01011475e+03 7.67780762e+03 7.64138965e+03 7.80807861e+03 7.85708838e+03 8.06436084e+03 7.81704346e+03 7.69702441e+03 8.07509912e+03 8.45665039e+03 8.34223242e+03 8.13273779e+03 8.21473145e+03 8.12998291e+03 8.13333594e+03 8.53864062e+03 8.84904688e+03 8.52860449e+03 8.36477832e+03 8.66488867e+03 8.54478125e+03 8.75629883e+03 8.78976367e+03 8.45814746e+03 8.82851465e+03 9.16420215e+03 8.76049707e+03 8.59163184e+03 8.94138672e+03 9.41135352e+03 9.35898047e+03 8.84501562e+03 8.98358594e+03 9.33790820e+03 9.50222754e+03 9.54255664e+03 9.23940820e+03 9.26161230e+03 9.39318457e+03 9.60421289e+03 9.84820605e+03 9.65932031e+03 9.58704492e+03 9.77074414e+03 9.81837402e+03 9.66601758e+03 9.69125781e+03 9.82536719e+03 9.87465723e+03 1.01506172e+04 1.01821846e+04 9.86077637e+03 9.93432910e+03 1.01762070e+04 1.03690117e+04 1.04559580e+04 1.03148809e+04 1.05011152e+04 1.04167910e+04 9.94430762e+03 1.01549316e+04 1.05056953e+04 1.05075479e+04 1.05619316e+04 1.05360674e+04 1.07731709e+04 1.10141494e+04 1.05281367e+04 1.04820938e+04 1.08816553e+04 1.11595420e+04 1.10809951e+04 1.05815322e+04 1.05755889e+04 1.11374990e+04 1.15611064e+04 1.10667217e+04 1.06380293e+04 1.09510967e+04 1.15283887e+04 1.17191895e+04 1.11359453e+04 1.10675205e+04 1.10933018e+04 1.14301729e+04 1.18025957e+04 1.12816758e+04 1.13233916e+04 1.14504277e+04 1.13696748e+04 1.16957930e+04 1.21094111e+04 1.17338945e+04 1.12932871e+04 1.19584404e+04 1.24862539e+04 1.17920703e+04 1.12652686e+04 1.16710684e+04 1.21015107e+04 1.19278564e+04 1.17499658e+04 1.18037012e+04 1.18679668e+04 1.23343701e+04 1.26243652e+04 1.21354258e+04 1.20752197e+04 1.20821240e+04 1.23705459e+04 1.25754336e+04 1.20421768e+04 1.22495879e+04 1.23769570e+04 1.21880996e+04 1.24670889e+04 1.27054482e+04 1.24213008e+04 1.23966504e+04 1.28389033e+04 1.28291934e+04 1.25003936e+04 1.23322637e+04 1.24247676e+04 1.27690957e+04 1.29043652e+04 1.25931455e+04 1.25733887e+04 1.27958994e+04 1.31588350e+04 1.32781475e+04 1.28195459e+04 1.30660537e+04 1.31424150e+04 1.26580137e+04 1.26588838e+04 1.29050381e+04 1.32674893e+04 1.32210371e+04 1.28507344e+04 1.27922773e+04 1.31183018e+04 1.35337432e+04 1.35085859e+04 1.32033379e+04 1.31769189e+04 1.30554854e+04 1.29355254e+04 1.30771582e+04 1.34197207e+04 1.35947930e+04 1.32061650e+04 1.31751240e+04 1.33392256e+04 1.33843389e+04 1.36001289e+04 1.35836846e+04 1.37246543e+04 1.35429561e+04 1.31794277e+04 1.31956650e+04 1.32569053e+04 1.37870254e+04 1.41708223e+04 1.36304355e+04 1.29717705e+04 1.32844697e+04 1.37070293e+04 1.36048877e+04 1.38644668e+04 1.38745869e+04 1.35372646e+04 1.37491143e+04 1.38853770e+04 1.36724893e+04 1.36709912e+04 1.36864355e+04 1.37673623e+04 1.36813203e+04 1.35382051e+04 1.36867451e+04 1.39789629e+04 1.42717529e+04 1.38973320e+04 1.35523584e+04 1.36262646e+04 1.38668740e+04 1.40952412e+04 1.39841191e+04 1.37679844e+04 1.36370732e+04 1.38616084e+04 1.41097734e+04 1.40412744e+04
    6.90960205e+03 6.92049170e+03 7.03092822e+03 7.13111279e+03 7.13820703e+03 7.17845654e+03 7.24654834e+03 7.20691895e+03 7.22291602e+03 7.37364600e+03 7.38105811e+03 7.39539404e+03 7.59542334e+03 7.68514551e+03 7.59875098e+03 7.80118066e+03 7.75678613e+03 7.60461133e+03 7.74802783e+03 7.86825879e+03 7.92550391e+03 7.80806445e+03 7.79449268e+03 8.09633740e+03 8.30231152e+03 8.16928955e+03 8.13110547e+03 8.31025000e+03 8.37302930e+03 8.23829102e+03 8.29908984e+03 8.59506738e+03 8.44393848e+03 8.36253809e+03 8.70103223e+03 8.57759082e+03 8.55038477e+03 8.69286914e+03 8.56767871e+03 8.72405762e+03 8.95231738e+03 8.80106836e+03 8.75875195e+03 8.99285938e+03 9.21553418e+03 9.17817676e+03 8.87291797e+03 9.02748535e+03 9.31177637e+03 9.21291699e+03 9.32681641e+03 9.35325000e+03 9.28879199e+03 9.40025391e+03 9.56326367e+03 9.68886816e+03 9.48445898e+03 9.35478906e+03 9.72632031e+03 9.93809668e+03 9.57990625e+03 9.56450098e+03 9.84702051e+03 9.88299414e+03 1.00676191e+04 9.98976367e+03 9.80118066e+03 9.94106641e+03 1.02028672e+04 1.02075723e+04 1.03097129e+04 1.03805840e+04 1.03759805e+04 1.03198271e+04 9.99071387e+03 1.02203096e+04 1.05860273e+04 1.04900176e+04 1.05510615e+04 1.04618574e+04 1.05050107e+04 1.06995879e+04 1.06024365e+04 1.06974141e+04 1.09733252e+04 1.09780352e+04 1.08729541e+04 1.06223525e+04 1.06036201e+04 1.09156582e+04 1.13357100e+04 1.11088936e+04 1.08134238e+04 1.10912783e+04 1.14065703e+04 1.13398584e+04 1.09972500e+04 1.10794717e+04 1.12499336e+04 1.14742988e+04 1.16023545e+04 1.11065674e+04 1.11775146e+04 1.15043340e+04 1.16645010e+04 1.16754336e+04 1.15795254e+04 1.15292764e+04 1.15994717e+04 1.22209512e+04 1.21367969e+04 1.14765723e+04 1.13642002e+04 1.17140479e+04 1.19122705e+04 1.17120664e+04 1.16696426e+04 1.19436143e+04 1.20181533e+04 1.21176162e+04 1.23462539e+04 1.21285088e+04 1.19859600e+04 1.21810811e+04 1.24063174e+04 1.23458125e+04 1.19090713e+04 1.20945527e+04 1.23030771e+04 1.22732119e+04 1.24180166e+04 1.24090684e+04 1.22445713e+04 1.24924561e+04 1.30060938e+04 1.27279160e+04 1.23233047e+04 1.24661191e+04 1.25607227e+04 1.25549727e+04 1.26135586e+04 1.26233564e+04 1.26505254e+04 1.26439326e+04 1.28117783e+04 1.30440244e+04 1.28562100e+04 1.28081973e+04 1.29906602e+04 1.29497480e+04 1.28670840e+04 1.27059336e+04 1.28863711e+04 1.30433184e+04 1.29585293e+04 1.29419014e+04 1.29798379e+04 1.32194658e+04 1.33835635e+04 1.33250771e+04 1.31689756e+04 1.30601543e+04 1.31217100e+04 1.30832275e+04 1.31229668e+04 1.32674385e+04 1.32232041e+04 1.32103643e+04 1.32453936e+04 1.31833398e+04 1.34259180e+04 1.36157559e+04 1.35886562e+04 1.34476631e+04 1.32808740e+04 1.33211055e+04 1.33053281e+04 1.34402188e+04 1.36246387e+04 1.35801152e+04 1.33626348e+04 1.33594766e+04 1.34287031e+04 1.34296523e+04 1.38329502e+04 1.39488506e+04 1.36339697e+04 1.36630381e+04 1.35590791e+04 1.32866738e+04 1.35799775e+04 1.39332646e+04 1.37247773e+04 1.35650771e+04 1.34882100e+04 1.34174258e+04 1.37331553e+04 1.39827441e+04 1.37599043e+04 1.37382676e+04 1.38447197e+04 1.38086602e+04 1.37909277e+04 1.37584150e+04 1.37579209e+04 1.38098926e+04 1.39258926e+04 1.38488174e+04 1.36622412e+04
    6.88607861e+03 6.90070361e+03 7.00785547e+03 7.10033252e+03 7.14958301e+03 7.16245459e+03 7.20359961e+03 7.18620459e+03 7.18797412e+03 7.37331006e+03 7.40101611e+03 7.34905273e+03 7.58274463e+03 7.64222852e+03 7.58844043e+03 7.77497852e+03 7.71439160e+03 7.60438281e+03 7.72257471e+03 7.86802588e+03 7.93578271e+03 7.80071875e+03 7.76025928e+03 8.00989209e+03 8.22871973e+03 8.17789307e+03 8.07959033e+03 8.26619824e+03 8.33129297e+03 8.20451855e+03 8.26287207e+03 8.54410840e+03 8.45262012e+03 8.33527344e+03 8.65488574e+03 8.50491406e+03 8.55333398e+03 8.72299805e+03 8.59891211e+03 8.74425488e+03 8.90862207e+03 8.77823242e+03 8.73284668e+03 8.96655078e+03 9.20478809e+03 9.20056934e+03 8.90079980e+03 8.98301172e+03 9.22264844e+03 9.21243750e+03 9.34564355e+03 9.28728516e+03 9.30052539e+03 9.41090625e+03 9.53696191e+03 9.68056250e+03 9.41583594e+03 9.30018652e+03 9.67560645e+03 9.92680859e+03 9.54403320e+03 9.46615039e+03 9.74363965e+03 9.88817188e+03 9.97962891e+03 9.96470312e+03 9.78594434e+03 9.90697461e+03 1.01497031e+04 1.01550771e+04 1.03111289e+04 1.03021270e+04 1.03690342e+04 1.02898105e+04 9.96686914e+03 1.02150078e+04 1.05608477e+04 1.04318701e+04 1.05277148e+04 1.04163896e+04 1.04954785e+04 1.07127891e+04 1.05533906e+04 1.06456201e+04 1.09549619e+04 1.09539580e+04 1.08528350e+04 1.06250029e+04 1.04956104e+04 1.08442275e+04 1.13149229e+04 1.10490371e+04 1.07712021e+04 1.10451982e+04 1.13790410e+04 1.13192334e+04 1.09101865e+04 1.10292705e+04 1.11996348e+04 1.14401631e+04 1.15955400e+04 1.10859902e+04 1.11245039e+04 1.14402051e+04 1.16447822e+04 1.16532744e+04 1.15151436e+04 1.14677256e+04 1.15617617e+04 1.21368867e+04 1.20882002e+04 1.14678496e+04 1.13485723e+04 1.16632881e+04 1.18491436e+04 1.17261094e+04 1.16815859e+04 1.18623408e+04 1.19581768e+04 1.20912217e+04 1.23333965e+04 1.20888633e+04 1.19232471e+04 1.21484072e+04 1.23612246e+04 1.22831846e+04 1.18622744e+04 1.20475039e+04 1.23007178e+04 1.22293516e+04 1.24245693e+04 1.23901680e+04 1.21951104e+04 1.24123906e+04 1.29550459e+04 1.26898936e+04 1.22801133e+04 1.24076562e+04 1.25138555e+04 1.25113242e+04 1.25754424e+04 1.25784834e+04 1.25916172e+04 1.26037568e+04 1.27605957e+04 1.30122852e+04 1.28055312e+04 1.27797295e+04 1.29640283e+04 1.29087480e+04 1.28313955e+04 1.26751777e+04 1.28592197e+04 1.30115068e+04 1.29406201e+04 1.29004697e+04 1.29439023e+04 1.31924502e+04 1.33224209e+04 1.32838633e+04 1.31372100e+04 1.30196904e+04 1.30730146e+04 1.30540918e+04 1.31014502e+04 1.32408721e+04 1.31809746e+04 1.31680166e+04 1.32015039e+04 1.31406660e+04 1.33880352e+04 1.35761260e+04 1.35441211e+04 1.34040850e+04 1.32433184e+04 1.32772764e+04 1.32799707e+04 1.33951846e+04 1.35586426e+04 1.35360371e+04 1.33329316e+04 1.33030293e+04 1.33874072e+04 1.33838467e+04 1.37908887e+04 1.39061045e+04 1.35791885e+04 1.36306104e+04 1.35129258e+04 1.32404307e+04 1.35445977e+04 1.38996025e+04 1.36754521e+04 1.35140830e+04 1.34524619e+04 1.33784697e+04 1.36982559e+04 1.39452725e+04 1.37114600e+04 1.36963516e+04 1.38069424e+04 1.37634111e+04 1.37472393e+04 1.37160654e+04 1.37137969e+04 1.37518643e+04 1.39005049e+04 1.38222832e+04 1.36022334e+04
    6.86528320e+03 6.85907422e+03 6.98605566e+03 7.08431299e+03 7.11147656e+03 7.14838770e+03 7.17806055e+03 7.16546191e+03 7.20434082e+03 7.36625098e+03 7.37740918e+03 7.33262207e+03 7.56237500e+03 7.62877686e+03 7.53726074e+03 7.74899902e+03 7.70659668e+03 7.56156592e+03 7.68722363e+03 7.84878320e+03 7.90544873e+03 7.77460547e+03 7.75448877e+03 8.03288721e+03 8.21645605e+03 8.09989209e+03 8.05667090e+03 8.25460742e+03 8.31585645e+03 8.21685449e+03 8.25219629e+03 8.53684766e+03 8.37489844e+03 8.35002832e+03 8.65876172e+03 8.52896875e+03 8.56814551e+03 8.70631641e+03 8.55357812e+03 8.74690039e+03 8.85023145e+03 8.70315918e+03 8.71454785e+03 9.02161035e+03 9.15633887e+03 9.17307520e+03 8.85946191e+03 8.96359180e+03 9.24050293e+03 9.11932715e+03 9.28826855e+03 9.32888086e+03 9.25680273e+03 9.37049316e+03 9.55972168e+03 9.70465527e+03 9.39633984e+03 9.28638770e+03 9.68240723e+03 9.90643066e+03 9.51874219e+03 9.45242090e+03 9.70586719e+03 9.85823633e+03 9.99799609e+03 9.86797168e+03 9.79367480e+03 9.91502539e+03 1.01003145e+04 1.01407129e+04 1.02660146e+04 1.03053682e+04 1.03223242e+04 1.02606025e+04 9.89647852e+03 1.01925361e+04 1.05314199e+04 1.04223203e+04 1.05193008e+04 1.04146836e+04 1.04257051e+04 1.06892832e+04 1.05313545e+04 1.06454424e+04 1.09336221e+04 1.09444707e+04 1.08526455e+04 1.05882637e+04 1.04785400e+04 1.08569219e+04 1.12973867e+04 1.10464385e+04 1.07592656e+04 1.10244160e+04 1.13892754e+04 1.13392344e+04 1.09004219e+04 1.09863066e+04 1.11790928e+04 1.14409717e+04 1.15434404e+04 1.10539150e+04 1.10949062e+04 1.14160645e+04 1.16175088e+04 1.16285977e+04 1.15188867e+04 1.14704570e+04 1.15349561e+04 1.21341113e+04 1.20606299e+04 1.14635029e+04 1.13020010e+04 1.15957207e+04 1.18726045e+04 1.17228291e+04 1.16366934e+04 1.18555400e+04 1.19298145e+04 1.20837012e+04 1.23176602e+04 1.20615693e+04 1.19156094e+04 1.21244580e+04 1.23104180e+04 1.22980791e+04 1.18397793e+04 1.20366807e+04 1.22770264e+04 1.22288721e+04 1.23682852e+04 1.23491299e+04 1.21551475e+04 1.23820742e+04 1.29091201e+04 1.26755869e+04 1.22617295e+04 1.24061777e+04 1.25179199e+04 1.25021172e+04 1.25454473e+04 1.25620117e+04 1.25733799e+04 1.25989561e+04 1.27488652e+04 1.29742578e+04 1.27808330e+04 1.27520576e+04 1.29027686e+04 1.28491250e+04 1.27927881e+04 1.26523418e+04 1.28508115e+04 1.29815146e+04 1.28996143e+04 1.28723818e+04 1.29208428e+04 1.31566289e+04 1.32848896e+04 1.32442412e+04 1.30979170e+04 1.29961035e+04 1.30575645e+04 1.30422080e+04 1.30786572e+04 1.32097568e+04 1.31386543e+04 1.31267695e+04 1.31599805e+04 1.31328691e+04 1.33851113e+04 1.35361953e+04 1.35123545e+04 1.33738330e+04 1.32126445e+04 1.32607490e+04 1.32631855e+04 1.33545479e+04 1.35386963e+04 1.35193047e+04 1.32896709e+04 1.32849150e+04 1.33547344e+04 1.33406494e+04 1.37542471e+04 1.38657354e+04 1.35551641e+04 1.36171709e+04 1.34870840e+04 1.32000137e+04 1.35116113e+04 1.38634434e+04 1.36547686e+04 1.35216992e+04 1.34175078e+04 1.33256006e+04 1.36617725e+04 1.39069795e+04 1.36861543e+04 1.36712334e+04 1.37612852e+04 1.37349385e+04 1.37335195e+04 1.37025498e+04 1.36744326e+04 1.37104082e+04 1.38886465e+04 1.37796240e+04 1.35608086e+04
    6.91201758e+03 6.96219727e+03 6.85892578e+03 7.00201416e+03 7.20270654e+03 7.18032666e+03 7.18929883e+03 7.04087012e+03 7.01344189e+03 7.30243408e+03 7.49564893e+03 7.48278955e+03 7.44679980e+03 7.51441455e+03 7.50239551e+03 7.74053076e+03 7.79742285e+03 7.56829248e+03 7.50540430e+03 7.68524316e+03 7.92217578e+03 7.91482031e+03 7.85575098e+03 7.92126709e+03 8.06358350e+03 8.21040527e+03 8.14850684e+03 8.05930518e+03 8.11215820e+03 8.31552051e+03 8.38456543e+03 8.56980957e+03 8.32705176e+03 8.34475195e+03 8.62593164e+03 8.36337988e+03 8.53285449e+03 8.82963184e+03 8.52515430e+03 8.65432715e+03 8.84034863e+03 8.82508691e+03 8.71682617e+03 8.83172363e+03 9.19240332e+03 9.25421875e+03 8.84158105e+03 8.91879395e+03 9.18580957e+03 9.24595020e+03 9.40805469e+03 9.20046777e+03 9.08907520e+03 9.28428320e+03 9.59146777e+03 9.64112891e+03 9.50737012e+03 9.52910059e+03 9.62968652e+03 9.58911230e+03 9.56278223e+03 9.63170801e+03 9.76606055e+03 9.80396582e+03 9.81492578e+03 9.81332715e+03 9.98758105e+03 9.99194727e+03 9.82682715e+03 1.01577305e+04 1.04528955e+04 1.01723828e+04 1.02325938e+04 1.01521582e+04 9.90419824e+03 1.02721143e+04 1.05110205e+04 1.03102539e+04 1.03337256e+04 1.04676436e+04 1.05849385e+04 1.08498125e+04 1.05452402e+04 1.04439678e+04 1.06232979e+04 1.08687568e+04 1.10154717e+04 1.05362148e+04 1.05122139e+04 1.08303867e+04 1.10904268e+04 1.10873496e+04 1.08443115e+04 1.07935566e+04 1.13086016e+04 1.17070557e+04 1.10918447e+04 1.08904170e+04 1.09761221e+04 1.14446855e+04 1.16550234e+04 1.11250605e+04 1.11296162e+04 1.12570254e+04 1.13445752e+04 1.14662910e+04 1.17318066e+04 1.16224375e+04 1.14074443e+04 1.16686025e+04 1.19502236e+04 1.17102715e+04 1.12163203e+04 1.14636836e+04 1.19060928e+04 1.18409893e+04 1.19071396e+04 1.18145039e+04 1.16398291e+04 1.21221328e+04 1.25491436e+04 1.20924648e+04 1.18251279e+04 1.19549951e+04 1.23893535e+04 1.24131514e+04 1.18957676e+04 1.19556572e+04 1.22609150e+04 1.22240635e+04 1.22404229e+04 1.24668955e+04 1.23428945e+04 1.24076094e+04 1.25877480e+04 1.23245049e+04 1.22627998e+04 1.22795273e+04 1.24301455e+04 1.26854424e+04 1.25150498e+04 1.24233125e+04 1.25535918e+04 1.27708242e+04 1.31758447e+04 1.30787676e+04 1.25141289e+04 1.25131650e+04 1.28900312e+04 1.29460225e+04 1.26989004e+04 1.27305850e+04 1.28413711e+04 1.29184043e+04 1.29521016e+04 1.27310352e+04 1.29649619e+04 1.32331523e+04 1.32436318e+04 1.30782383e+04 1.29014951e+04 1.29851885e+04 1.28785820e+04 1.29233027e+04 1.33931611e+04 1.33681113e+04 1.29266270e+04 1.29831475e+04 1.31752041e+04 1.34230186e+04 1.35247393e+04 1.33424707e+04 1.33637646e+04 1.33060869e+04 1.32548447e+04 1.31542334e+04 1.31887100e+04 1.34745303e+04 1.37491641e+04 1.35745957e+04 1.30221475e+04 1.32339346e+04 1.35001270e+04 1.34468516e+04 1.36823760e+04 1.34543750e+04 1.32951943e+04 1.37204434e+04 1.37533984e+04 1.35485693e+04 1.35327832e+04 1.35132930e+04 1.35676133e+04 1.35374014e+04 1.34721680e+04 1.35412021e+04 1.37336777e+04 1.38155293e+04 1.36729766e+04 1.36345537e+04 1.35728311e+04 1.36737266e+04 1.38569014e+04 1.37249229e+04 1.34237871e+04 1.35293291e+04 1.38917295e+04 1.38684785e+04 1.39801387e+04
    7.00796631e+03 7.00774170e+03 6.92062158e+03 7.05814111e+03 7.05209961e+03 7.08018945e+03 7.25789307e+03 7.11906885e+03 7.05996826e+03 7.32064648e+03 7.50543457e+03 7.46771680e+03 7.54828027e+03 7.56312646e+03 7.34727832e+03 7.66767334e+03 7.98479541e+03 7.52985938e+03 7.48639893e+03 7.76744434e+03 7.77427881e+03 7.76821973e+03 7.90929443e+03 7.98145361e+03 8.05485742e+03 8.15076025e+03 8.12741406e+03 8.18119971e+03 8.21832520e+03 8.23365234e+03 8.31951855e+03 8.46791895e+03 8.25914258e+03 8.33457324e+03 8.72335254e+03 8.50442578e+03 8.45113184e+03 8.62386621e+03 8.56669727e+03 8.63283105e+03 8.80142871e+03 8.78981152e+03 8.89956250e+03 9.03058301e+03 9.05435547e+03 9.05700098e+03 8.89473926e+03 8.99031348e+03 9.13434766e+03 9.13485352e+03 9.32395020e+03 9.40347559e+03 9.25226758e+03 9.26529883e+03 9.34342969e+03 9.63560059e+03 9.57994043e+03 9.28347266e+03 9.58327441e+03 9.76347070e+03 9.62661230e+03 9.68372656e+03 9.73184570e+03 9.76691211e+03 9.78678906e+03 9.64896582e+03 9.83274219e+03 1.01590107e+04 1.00633682e+04 9.98910547e+03 1.02817676e+04 1.03120137e+04 1.02777383e+04 1.00806787e+04 9.77989355e+03 1.02882256e+04 1.06781650e+04 1.03186016e+04 1.02181660e+04 1.03355039e+04 1.05968252e+04 1.08150283e+04 1.04744492e+04 1.05410879e+04 1.07085430e+04 1.08341992e+04 1.09400645e+04 1.06215586e+04 1.06058633e+04 1.08624189e+04 1.09158975e+04 1.09402480e+04 1.10902891e+04 1.10516602e+04 1.10912900e+04 1.13392891e+04 1.12104824e+04 1.10648047e+04 1.10148877e+04 1.13522324e+04 1.14610381e+04 1.11073301e+04 1.11776357e+04 1.11569463e+04 1.13290801e+04 1.16378926e+04 1.15617744e+04 1.13877090e+04 1.15420459e+04 1.18533271e+04 1.17795947e+04 1.16197412e+04 1.14232998e+04 1.16143496e+04 1.18404238e+04 1.16522402e+04 1.16370801e+04 1.19847695e+04 1.19686729e+04 1.19132920e+04 1.22504785e+04 1.22172490e+04 1.19659160e+04 1.18550527e+04 1.20924551e+04 1.23329883e+04 1.18461260e+04 1.17883018e+04 1.22138789e+04 1.23525664e+04 1.24809775e+04 1.23531455e+04 1.20327354e+04 1.24861748e+04 1.28914131e+04 1.23456338e+04 1.20624961e+04 1.24853398e+04 1.27593994e+04 1.25825029e+04 1.24029727e+04 1.24169590e+04 1.25292246e+04 1.26708320e+04 1.28737246e+04 1.29570146e+04 1.26730801e+04 1.25341895e+04 1.27662871e+04 1.28162812e+04 1.27277021e+04 1.26863936e+04 1.27061123e+04 1.29189170e+04 1.29705957e+04 1.29319492e+04 1.29072910e+04 1.29787393e+04 1.33079238e+04 1.32398682e+04 1.29280801e+04 1.27798223e+04 1.29097383e+04 1.32621064e+04 1.34735117e+04 1.32235791e+04 1.27628262e+04 1.28597686e+04 1.33046230e+04 1.34331768e+04 1.34720762e+04 1.33074121e+04 1.31891221e+04 1.33378945e+04 1.32684551e+04 1.33920225e+04 1.32646318e+04 1.30115479e+04 1.35317480e+04 1.36865859e+04 1.33676172e+04 1.32831572e+04 1.31156221e+04 1.33546260e+04 1.38241572e+04 1.38275469e+04 1.34952666e+04 1.35217148e+04 1.36209678e+04 1.33184561e+04 1.34240117e+04 1.35168203e+04 1.34996250e+04 1.37833203e+04 1.35761689e+04 1.33202559e+04 1.35641963e+04 1.36463730e+04 1.36117480e+04 1.36971992e+04 1.37689551e+04 1.37156377e+04 1.35872617e+04 1.36266826e+04 1.34801533e+04 1.37901699e+04 1.40641924e+04 1.36766953e+04 1.36649287e+04
    6.82383350e+03 6.86103564e+03 6.96779785e+03 7.13351025e+03 7.14382617e+03 7.07883838e+03 7.08744531e+03 7.05163867e+03 7.16278564e+03 7.37939062e+03 7.47277930e+03 7.38730176e+03 7.51074658e+03 7.52043945e+03 7.42918994e+03 7.63886230e+03 7.88212793e+03 7.53019629e+03 7.47227002e+03 7.73318799e+03 7.86788965e+03 7.94583643e+03 7.94995850e+03 7.91306006e+03 7.97618408e+03 8.02246777e+03 8.10048096e+03 8.14414307e+03 8.39112109e+03 8.38069727e+03 8.14062939e+03 8.29697559e+03 8.30406836e+03 8.41121484e+03 8.69618359e+03 8.40252344e+03 8.36867578e+03 8.75955078e+03 8.72106543e+03 8.58364551e+03 8.70461426e+03 8.92971680e+03 8.84189746e+03 8.81310938e+03 9.01180469e+03 9.12374023e+03 9.01740430e+03 9.01136914e+03 9.12413672e+03 9.01553809e+03 9.22959473e+03 9.34550098e+03 9.16013965e+03 9.41398535e+03 9.59771484e+03 9.53686523e+03 9.39601074e+03 9.39313379e+03 9.60857031e+03 9.66765625e+03 9.50434668e+03 9.53099902e+03 9.81119531e+03 9.83982324e+03 9.73264160e+03 9.70847168e+03 9.95219922e+03 1.00640361e+04 9.95921680e+03 1.00466797e+04 1.02648926e+04 1.01869053e+04 1.01742393e+04 1.01218428e+04 9.94617090e+03 1.03902002e+04 1.06628311e+04 1.03010898e+04 1.03779551e+04 1.03789170e+04 1.03260146e+04 1.06281719e+04 1.06398477e+04 1.06928027e+04 1.07201191e+04 1.07508701e+04 1.08071787e+04 1.06467959e+04 1.06395645e+04 1.06895869e+04 1.08549746e+04 1.11108750e+04 1.10571172e+04 1.09841426e+04 1.11647334e+04 1.12874502e+04 1.09951865e+04 1.09448711e+04 1.11863926e+04 1.15344258e+04 1.14844922e+04 1.10171016e+04 1.10049795e+04 1.13086465e+04 1.16986475e+04 1.14644795e+04 1.12861318e+04 1.14509629e+04 1.17125303e+04 1.19457559e+04 1.16165596e+04 1.13863096e+04 1.13405957e+04 1.15371328e+04 1.17782188e+04 1.16690020e+04 1.18201787e+04 1.20007275e+04 1.18164492e+04 1.19248789e+04 1.23560996e+04 1.21565166e+04 1.17373291e+04 1.21061719e+04 1.24709062e+04 1.22449775e+04 1.17818799e+04 1.18153760e+04 1.22172275e+04 1.22988066e+04 1.22374268e+04 1.22597842e+04 1.22059863e+04 1.25477588e+04 1.28155625e+04 1.22684580e+04 1.21538857e+04 1.24786465e+04 1.25678691e+04 1.24898096e+04 1.22808916e+04 1.25023799e+04 1.26750039e+04 1.26672207e+04 1.28839697e+04 1.29283887e+04 1.25979551e+04 1.24421885e+04 1.27685771e+04 1.31280205e+04 1.29589219e+04 1.25608184e+04 1.25194990e+04 1.28016338e+04 1.30935830e+04 1.29380742e+04 1.28591562e+04 1.29666787e+04 1.31532500e+04 1.32812363e+04 1.29521133e+04 1.30072305e+04 1.31027725e+04 1.29809326e+04 1.31502100e+04 1.30851855e+04 1.30047852e+04 1.30934893e+04 1.31322773e+04 1.32261475e+04 1.33818594e+04 1.34394873e+04 1.32777432e+04 1.32555830e+04 1.33938193e+04 1.33065215e+04 1.32856621e+04 1.32119668e+04 1.32614365e+04 1.35544229e+04 1.34765654e+04 1.33548594e+04 1.32604414e+04 1.33116963e+04 1.36662422e+04 1.35884980e+04 1.34715859e+04 1.36854180e+04 1.34824775e+04 1.32238018e+04 1.34771475e+04 1.37729932e+04 1.35712236e+04 1.34558154e+04 1.34662188e+04 1.33451016e+04 1.35719941e+04 1.35687373e+04 1.35731758e+04 1.38824541e+04 1.38221299e+04 1.36618867e+04 1.35922324e+04 1.35751182e+04 1.34612227e+04 1.37438359e+04 1.40084180e+04 1.36632002e+04 1.36737334e+04
    6.86822363e+03 6.87759814e+03 6.94217285e+03 7.07652686e+03 7.05646338e+03 7.10461572e+03 7.16646729e+03 7.14698877e+03 7.13803027e+03 7.30118457e+03 7.36688525e+03 7.30102393e+03 7.55823047e+03 7.60640088e+03 7.47736963e+03 7.74911621e+03 7.71114893e+03 7.45606104e+03 7.63429492e+03 7.84366943e+03 7.90468408e+03 7.74210742e+03 7.70725098e+03 7.98982959e+03 8.27654883e+03 8.01277930e+03 8.00359229e+03 8.23148633e+03 8.25135547e+03 8.18990039e+03 8.22473438e+03 8.46943945e+03 8.39548828e+03 8.29408496e+03 8.64873926e+03 8.46601562e+03 8.49426758e+03 8.67370215e+03 8.53970215e+03 8.68039941e+03 8.83348145e+03 8.73270996e+03 8.69214648e+03 8.90665137e+03 9.11680469e+03 9.19249414e+03 8.89234473e+03 8.90555469e+03 9.20040625e+03 9.13210938e+03 9.25450098e+03 9.29474707e+03 9.24047461e+03 9.35476562e+03 9.51610645e+03 9.62913672e+03 9.37318652e+03 9.29285059e+03 9.67060547e+03 9.82964355e+03 9.49119922e+03 9.49804492e+03 9.71414258e+03 9.79514160e+03 9.93169824e+03 9.90566797e+03 9.69618945e+03 9.83780273e+03 1.01422129e+04 1.01297842e+04 1.02027891e+04 1.01912432e+04 1.03051230e+04 1.02257588e+04 9.85119824e+03 1.01777783e+04 1.04756133e+04 1.03738818e+04 1.04428252e+04 1.03446680e+04 1.03904609e+04 1.06738359e+04 1.04975137e+04 1.05623086e+04 1.08807031e+04 1.09055098e+04 1.08236855e+04 1.05511777e+04 1.04951006e+04 1.08484385e+04 1.11887021e+04 1.09368926e+04 1.07195928e+04 1.10090586e+04 1.13424902e+04 1.12412246e+04 1.08476592e+04 1.09933828e+04 1.11094316e+04 1.14389990e+04 1.15138418e+04 1.10231982e+04 1.10636680e+04 1.13516025e+04 1.15034150e+04 1.15869912e+04 1.15703301e+04 1.14614922e+04 1.14464287e+04 1.20596191e+04 1.19760547e+04 1.13756230e+04 1.12686299e+04 1.15664043e+04 1.18430225e+04 1.16472031e+04 1.15678711e+04 1.18034971e+04 1.18823428e+04 1.19783213e+04 1.22722471e+04 1.20706299e+04 1.18325996e+04 1.20819219e+04 1.22957100e+04 1.22575195e+04 1.17695312e+04 1.19835225e+04 1.22436465e+04 1.21374043e+04 1.23323418e+04 1.23255117e+04 1.21208398e+04 1.23291533e+04 1.28611221e+04 1.26431416e+04 1.22418047e+04 1.23786191e+04 1.24281143e+04 1.24121641e+04 1.24616201e+04 1.25299639e+04 1.25497344e+04 1.25279639e+04 1.27211758e+04 1.29271904e+04 1.27271250e+04 1.28212100e+04 1.28360977e+04 1.26837939e+04 1.27640391e+04 1.25870146e+04 1.27844336e+04 1.29276416e+04 1.28196807e+04 1.28497607e+04 1.28787217e+04 1.30822881e+04 1.32139502e+04 1.32094863e+04 1.30765420e+04 1.29219346e+04 1.29861660e+04 1.29906465e+04 1.30453340e+04 1.31631143e+04 1.31014854e+04 1.30798350e+04 1.31212979e+04 1.30793330e+04 1.32865459e+04 1.34839629e+04 1.34635625e+04 1.32951807e+04 1.31565225e+04 1.32132012e+04 1.32383184e+04 1.33118867e+04 1.34727744e+04 1.34719141e+04 1.32369727e+04 1.32201748e+04 1.32932578e+04 1.32789609e+04 1.36553936e+04 1.38317441e+04 1.35468867e+04 1.35550498e+04 1.34173242e+04 1.31530674e+04 1.34588721e+04 1.37980410e+04 1.36036484e+04 1.34331572e+04 1.33605566e+04 1.33026533e+04 1.36193809e+04 1.38324111e+04 1.36455117e+04 1.36350029e+04 1.36933086e+04 1.36741250e+04 1.36566963e+04 1.36528428e+04 1.36504805e+04 1.36893486e+04 1.38040059e+04 1.37006670e+04 1.35391250e+04
    6.88935986e+03 6.95711182e+03 6.82739893e+03 6.93719092e+03 7.17872412e+03 7.14203760e+03 7.19659912e+03 6.99779150e+03 7.03291650e+03 7.29956641e+03 7.48518018e+03 7.44620361e+03 7.43384082e+03 7.50927148e+03 7.44805176e+03 7.71017627e+03 7.77258887e+03 7.56030957e+03 7.52103467e+03 7.68551172e+03 7.94596973e+03 7.86822412e+03 7.76391748e+03 7.89368311e+03 8.09391650e+03 8.16801367e+03 8.18860693e+03 7.93799707e+03 8.04122168e+03 8.35139844e+03 8.32118164e+03 8.44705566e+03 8.32784668e+03 8.32033008e+03 8.60198438e+03 8.35839941e+03 8.49773340e+03 8.72502832e+03 8541. 8.60986719e+03 8.87320410e+03 8.85555957e+03 8.67252344e+03 8.69383105e+03 9.17639844e+03 9.26087207e+03 8.86403320e+03 8.93017578e+03 9.13176562e+03 9.22145410e+03 9.30581055e+03 9.24997070e+03 9.17082129e+03 9.22504980e+03 9.54648242e+03 9.61117188e+03 9.54210449e+03 9.55533887e+03 9.59174023e+03 9.47942969e+03 9.49767285e+03 9.70231543e+03 9.72548438e+03 9.76283496e+03 9.71503125e+03 9.80921289e+03 9.94441113e+03 9.96452246e+03 9.81223047e+03 1.01392129e+04 1.04189453e+04 1.00932998e+04 1.02475684e+04 1.01297578e+04 9.85546094e+03 1.02391738e+04 1.05008223e+04 1.02963359e+04 1.03100371e+04 1.04074893e+04 1.05916445e+04 1.08354873e+04 1.04974453e+04 1.04467490e+04 1.05867822e+04 1.08012441e+04 1.09791797e+04 1.05185117e+04 1.05115342e+04 1.07797529e+04 1.10184395e+04 1.10591514e+04 1.08172773e+04 1.07595957e+04 1.12284531e+04 1.16498154e+04 1.10918604e+04 1.08745107e+04 1.09132100e+04 1.14095234e+04 1.16628926e+04 1.11124160e+04 1.10857344e+04 1.12345029e+04 1.12824463e+04 1.14413848e+04 1.18022461e+04 1.16721191e+04 1.13367676e+04 1.16119414e+04 1.18802148e+04 1.16273340e+04 1.11835967e+04 1.14633467e+04 1.18713447e+04 1.17648213e+04 1.18339902e+04 1.18573086e+04 1.16127314e+04 1.20617266e+04 1.25201748e+04 1.20920088e+04 1.17919336e+04 1.19494258e+04 1.23686797e+04 1.23137754e+04 1.18162676e+04 1.19216787e+04 1.23263701e+04 1.20588545e+04 1.20857607e+04 1.25632764e+04 1.23112520e+04 1.23393662e+04 1.25696533e+04 1.23279619e+04 1.22509990e+04 1.22238496e+04 1.23750850e+04 1.26151982e+04 1.24938828e+04 1.24048545e+04 1.24960859e+04 1.27386924e+04 1.31461035e+04 1.30186973e+04 1.24928975e+04 1.25788428e+04 1.27548340e+04 1.28350801e+04 1.26959473e+04 1.26448672e+04 1.28509678e+04 1.29068096e+04 1.28926816e+04 1.26626807e+04 1.29277080e+04 1.32026416e+04 1.31741982e+04 1.30430928e+04 1.28795342e+04 1.29269971e+04 1.28141211e+04 1.29079189e+04 1.33727197e+04 1.33020732e+04 1.28920654e+04 1.29726855e+04 1.31558750e+04 1.33473154e+04 1.34090010e+04 1.34686553e+04 1.32942480e+04 1.30713779e+04 1.32505684e+04 1.31260938e+04 1.31755703e+04 1.34686045e+04 1.37001826e+04 1.35231514e+04 1.29950518e+04 1.31754053e+04 1.34497998e+04 1.33780244e+04 1.35972949e+04 1.34439932e+04 1.33050029e+04 1.36803262e+04 1.36818535e+04 1.35090430e+04 1.35183145e+04 1.34533828e+04 1.35025391e+04 1.34525977e+04 1.34376406e+04 1.35664961e+04 1.37005078e+04 1.37213184e+04 1.36419160e+04 1.36356768e+04 1.35071943e+04 1.36143115e+04 1.38085186e+04 1.36922422e+04 1.34084434e+04 1.35329365e+04 1.38007207e+04 1.37963213e+04 1.39874111e+04
    6.95783740e+03 6.99434375e+03 6.86011377e+03 6.96380029e+03 7.00656885e+03 7.05851807e+03 7.22915039e+03 7.08101221e+03 7.06930615e+03 7.32227246e+03 7.46738867e+03 7.38547754e+03 7.56548828e+03 7.56205566e+03 7.29072852e+03 7.65517529e+03 7.90996875e+03 7.53346826e+03 7.49275732e+03 7.70711279e+03 7.76756201e+03 7.74912207e+03 7.83402930e+03 7.90029736e+03 8.03395361e+03 8.13324316e+03 8.17322852e+03 8.04408447e+03 8.18168799e+03 8.29524316e+03 8.29943945e+03 8.45688965e+03 8.19415820e+03 8.27095215e+03 8.76454395e+03 8.54200488e+03 8.45368555e+03 8.51873633e+03 8.50913672e+03 8.67295605e+03 8.80269434e+03 8.85665625e+03 8.89598730e+03 8.92299707e+03 8.97185059e+03 9.02540625e+03 8.85465527e+03 9.00543066e+03 9.09916895e+03 9.04727246e+03 9.22739258e+03 9.38622949e+03 9.36170996e+03 9.21571289e+03 9.30790039e+03 9.60841309e+03 9.59071094e+03 9.33197363e+03 9.54532227e+03 9.73450684e+03 9.61475879e+03 9.67101074e+03 9.73174023e+03 9.73770020e+03 9.75600781e+03 9.64891309e+03 9.77940527e+03 1.00841084e+04 1.00402051e+04 1.00342578e+04 1.02343750e+04 1.02311406e+04 1.02583242e+04 1.00355723e+04 9.72783594e+03 1.02736201e+04 1.06867158e+04 1.02636533e+04 1.02070293e+04 1.03280889e+04 1.06109531e+04 1.07812373e+04 1.03660645e+04 1.05156738e+04 1.07108320e+04 1.07980273e+04 1.08681572e+04 1.06216543e+04 1.06275723e+04 1.07915928e+04 1.08908916e+04 1.08115322e+04 1.10813447e+04 1.11315664e+04 1.10193965e+04 1.12590879e+04 1.11913232e+04 1.10407998e+04 1.10182930e+04 1.13493594e+04 1.14406846e+04 1.10651504e+04 1.11468252e+04 1.11167979e+04 1.12356660e+04 1.16413926e+04 1.16105518e+04 1.13833467e+04 1.15087314e+04 1.18121816e+04 1.17349932e+04 1.14975410e+04 1.14339307e+04 1.15724307e+04 1.18274736e+04 1.15806953e+04 1.14772891e+04 1.19876152e+04 1.20476338e+04 1.18899814e+04 1.22672646e+04 1.22286953e+04 1.19663379e+04 1.18811816e+04 1.20645850e+04 1.22395137e+04 1.17691826e+04 1.17584893e+04 1.24043115e+04 1.20823418e+04 1.22460049e+04 1.25292988e+04 1.20596436e+04 1.24301885e+04 1.29113018e+04 1.22582295e+04 1.19812998e+04 1.26025205e+04 1.26038828e+04 1.24878574e+04 1.25047637e+04 1.23922861e+04 1.24890225e+04 1.26588916e+04 1.28466387e+04 1.28861729e+04 1.26783496e+04 1.24591641e+04 1.26597568e+04 1.28925322e+04 1.27042168e+04 1.25995752e+04 1.26968730e+04 1.28910420e+04 1.29093682e+04 1.28890117e+04 1.28854844e+04 1.29845615e+04 1.32582744e+04 1.32141006e+04 1.28900049e+04 1.27525156e+04 1.28467285e+04 1.32506611e+04 1.34632861e+04 1.31837812e+04 1.27592373e+04 1.28490186e+04 1.32722822e+04 1.33630879e+04 1.33735469e+04 1.34368281e+04 1.31355527e+04 1.30000078e+04 1.32838857e+04 1.34902178e+04 1.32430820e+04 1.30059014e+04 1.34963545e+04 1.36635107e+04 1.33477178e+04 1.32285498e+04 1.30607236e+04 1.32948496e+04 1.38259980e+04 1.38081279e+04 1.34761875e+04 1.35174629e+04 1.35347188e+04 1.32545645e+04 1.34224229e+04 1.35190234e+04 1.34623330e+04 1.37038408e+04 1.35529883e+04 1.33279873e+04 1.34944219e+04 1.35819854e+04 1.36127744e+04 1.36808330e+04 1.37235586e+04 1.37277441e+04 1.35420723e+04 1.35556553e+04 1.34434258e+04 1.37816572e+04 1.40289561e+04 1.36119395e+04 1.36734531e+04
    6.75348828e+03 6.88739404e+03 7.05601416e+03 6.96350293e+03 7.05762500e+03 7.20027490e+03 7.02882275e+03 6.93869482e+03 7.14802979e+03 7.37204980e+03 7.38773242e+03 7.39889160e+03 7.47994873e+03 7.59151855e+03 7.32856494e+03 7.55938281e+03 7.85652100e+03 7.57343555e+03 7.50756250e+03 7.71045068e+03 7.83708496e+03 7.90620605e+03 7.85054590e+03 7.95845703e+03 7.89304785e+03 7.96568848e+03 8.23641113e+03 8.01070361e+03 8.35024121e+03 8.51704004e+03 8.11160596e+03 8.23400879e+03 8.23241699e+03 8.37630664e+03 8.70041602e+03 8.42465723e+03 8.36945605e+03 8.63359570e+03 8.66887988e+03 8.63119824e+03 8.62555273e+03 8.92458008e+03 8.94705566e+03 8.77699512e+03 8.92362695e+03 9.07843555e+03 8.96294824e+03 9.08498438e+03 9.17524902e+03 8.96019531e+03 9.16088184e+03 9.29075098e+03 9.20333496e+03 9.38901465e+03 9.63057031e+03 9.51343750e+03 9.33389355e+03 9.29880859e+03 9.57795410e+03 9.67749707e+03 9.51992676e+03 9.51387988e+03 9.77525879e+03 9.86090332e+03 9.68271094e+03 9.65831934e+03 9.96549121e+03 1.00312471e+04 9.87404492e+03 1.00737949e+04 1.02529473e+04 1.01306533e+04 1.01827539e+04 1.01302197e+04 9.90705957e+03 1.03570322e+04 1.06154561e+04 1.02346885e+04 1.03662617e+04 1.04173291e+04 1.03191611e+04 1.05203730e+04 1.05585078e+04 1.06377051e+04 1.07693662e+04 1.07256836e+04 1.07438564e+04 1.06449023e+04 1.05673447e+04 1.06433779e+04 1.09211279e+04 1.10045586e+04 1.09928564e+04 1.10076123e+04 1.10937070e+04 1.12894658e+04 1.09975400e+04 1.08548867e+04 1.11916045e+04 1.15263457e+04 1.14358330e+04 1.10017119e+04 1.09825332e+04 1.13133115e+04 1.16561953e+04 1.14893115e+04 1.12255400e+04 1.13925098e+04 1.17200537e+04 1.19696992e+04 1.16110059e+04 1.13573760e+04 1.13272246e+04 1.14877305e+04 1.17252207e+04 1.16161885e+04 1.16970439e+04 1.19542715e+04 1.19264229e+04 1.19564229e+04 1.22747275e+04 1.21602041e+04 1.18100557e+04 1.20527168e+04 1.24167412e+04 1.21342754e+04 1.17300635e+04 1.18738877e+04 1.24143330e+04 1.20582842e+04 1.19898213e+04 1.24214395e+04 1.22654678e+04 1.25138213e+04 1.27732227e+04 1.21324297e+04 1.21369150e+04 1.24893398e+04 1.24815996e+04 1.25109922e+04 1.23009248e+04 1.24848828e+04 1.26138613e+04 1.26800078e+04 1.28537852e+04 1.28485791e+04 1.25312969e+04 1.22557334e+04 1.27448555e+04 1.33511846e+04 1.29146045e+04 1.24858926e+04 1.25183262e+04 1.27695391e+04 1.30743662e+04 1.28763203e+04 1.28194326e+04 1.29757119e+04 1.31187578e+04 1.32430088e+04 1.29330010e+04 1.30241348e+04 1.30833525e+04 1.29381934e+04 1.30883271e+04 1.30281826e+04 1.31131240e+04 1.30158691e+04 1.30170742e+04 1.32752461e+04 1.33151250e+04 1.35831582e+04 1.32210498e+04 1.29314629e+04 1.33876768e+04 1.33623418e+04 1.32656953e+04 1.32116475e+04 1.32139502e+04 1.35351699e+04 1.34811133e+04 1.33232793e+04 1.31993936e+04 1.32583672e+04 1.36485596e+04 1.35915938e+04 1.34451016e+04 1.36318037e+04 1.34367373e+04 1.31463496e+04 1.34585088e+04 1.38096455e+04 1.35281426e+04 1.34143320e+04 1.34400557e+04 1.33550107e+04 1.35135352e+04 1.34958662e+04 1.35887920e+04 1.38338936e+04 1.37758174e+04 1.36968223e+04 1.35291201e+04 1.35377451e+04 1.34521631e+04 1.36920518e+04 1.40092891e+04 1.36124277e+04 1.36313281e+04
    6.84305957e+03 6.84025293e+03 7.09821826e+03 6.90425049e+03 6.93003955e+03 7.33493945e+03 7.11057324e+03 6.98956348e+03 7.20104834e+03 7.33484424e+03 7.25590088e+03 7.27384570e+03 7.58870117e+03 7.70776318e+03 7.46732910e+03 7.61468799e+03 7.68933350e+03 7.46365234e+03 7.62955615e+03 7.79127148e+03 7.82449365e+03 7.71437842e+03 7.68993457e+03 8.01707861e+03 8.11142725e+03 8.03450732e+03 8.17741064e+03 8.08841064e+03 8.21656836e+03 8.19853223e+03 8.13198389e+03 8.46905957e+03 8.35998438e+03 8.35495801e+03 8.64657812e+03 8.45951562e+03 8.50920703e+03 8.63531934e+03 8.47449121e+03 8.67986523e+03 8.79972168e+03 8.74956641e+03 8.78933203e+03 8.83493457e+03 9.01300977e+03 9.06966895e+03 8.79712793e+03 8.97106836e+03 9.25798047e+03 9.09733691e+03 9.20419629e+03 9.19806738e+03 9.20051562e+03 9.40774121e+03 9.59497949e+03 9.60728027e+03 9.30490234e+03 9.24912891e+03 9.61007227e+03 9.82962793e+03 9.48651953e+03 9.45440137e+03 9.61424707e+03 9.81086816e+03 9.96141797e+03 9.87261426e+03 9.73391699e+03 9.87654688e+03 1.00358994e+04 1.01555635e+04 1.02098994e+04 1.00918818e+04 1.02482715e+04 1.02548008e+04 9.80889551e+03 1.01052363e+04 1.04873379e+04 1.02598975e+04 1.04528955e+04 1.05140703e+04 1.03635195e+04 1.05690967e+04 1.04108389e+04 1.04740938e+04 1.09761934e+04 1.09322891e+04 1.07301533e+04 1.05201299e+04 1.03975293e+04 1.08397314e+04 1.12605342e+04 1.08587256e+04 1.06818574e+04 1.10163662e+04 1.12886064e+04 1.12053291e+04 1.08581426e+04 1.08935293e+04 1.11474482e+04 1.13831807e+04 1.14509541e+04 1.10262285e+04 1.10487539e+04 1.13105312e+04 1.15467480e+04 1.16231670e+04 1.14351650e+04 1.12857764e+04 1.14950801e+04 1.21934434e+04 1.19879668e+04 1.13584365e+04 1.12063682e+04 1.15207637e+04 1.18051289e+04 1.14931631e+04 1.14627100e+04 1.18621602e+04 1.19994102e+04 1.21221963e+04 1.21297275e+04 1.19636201e+04 1.19807959e+04 1.20241318e+04 1.22525010e+04 1.21573857e+04 1.17513506e+04 1.20563594e+04 1.23211602e+04 1.19676699e+04 1.21312480e+04 1.23864824e+04 1.21740762e+04 1.23520820e+04 1.28643623e+04 1.24518096e+04 1.22339258e+04 1.24077451e+04 1.22979971e+04 1.24394697e+04 1.25201514e+04 1.25212471e+04 1.25073760e+04 1.25251094e+04 1.26658418e+04 1.29249277e+04 1.27004951e+04 1.26070156e+04 1.27971172e+04 1.28766914e+04 1.27430596e+04 1.25102217e+04 1.27694648e+04 1.28979902e+04 1.28081299e+04 1.27914287e+04 1.28594863e+04 1.31040059e+04 1.31640850e+04 1.31477461e+04 1.30822119e+04 1.29605156e+04 1.29597178e+04 1.29524131e+04 1.29433506e+04 1.30623340e+04 1.32411660e+04 1.30265713e+04 1.30158320e+04 1.31147559e+04 1.32578311e+04 1.34869678e+04 1.34598359e+04 1.31187451e+04 1.30749199e+04 1.32619541e+04 1.32125752e+04 1.33416709e+04 1.34578115e+04 1.34355820e+04 1.32264502e+04 1.32140020e+04 1.33138975e+04 1.32247676e+04 1.36982490e+04 1.39905127e+04 1.32814150e+04 1.33628984e+04 1.34702461e+04 1.30698447e+04 1.34174902e+04 1.38815596e+04 1.35759482e+04 1.33849258e+04 1.33607383e+04 1.32854482e+04 1.35428652e+04 1.38138018e+04 1.36845518e+04 1.35238975e+04 1.36508301e+04 1.37823281e+04 1.36225117e+04 1.36140869e+04 1.36105898e+04 1.36136035e+04 1.39428604e+04 1.35774688e+04 1.33946348e+04
    6.86290430e+03 6.87806006e+03 6.92530371e+03 6.88281152e+03 7.10317480e+03 7.34677051e+03 7.15710352e+03 6.88994629e+03 7.03177197e+03 7.33753174e+03 7.39768506e+03 7.47999805e+03 7.41844092e+03 7.60775830e+03 7.42693164e+03 7.54226221e+03 7.83426807e+03 7.43756104e+03 7.46774072e+03 7.79248145e+03 7.90454199e+03 7.82407764e+03 7.73561523e+03 7.95246289e+03 7.97675537e+03 8.15545361e+03 8.31452148e+03 7.94386523e+03 8.01815234e+03 8.32684766e+03 8.31313574e+03 8.46861230e+03 8.15508691e+03 8.28289160e+03 8.80895117e+03 8.31890039e+03 8.36502832e+03 8.75004395e+03 8.58824316e+03 8.58869727e+03 8.71699023e+03 8.76225391e+03 8.73903320e+03 8.78094238e+03 8.99465234e+03 9.15031934e+03 8.90903418e+03 8.90898145e+03 9.18903223e+03 9.26166699e+03 9.34229590e+03 9.11538379e+03 9.05193066e+03 9.28137109e+03 9.53299414e+03 9.43800879e+03 9.43406543e+03 9.58813770e+03 9.54131641e+03 9.37117383e+03 9.46065137e+03 9.77878711e+03 9.63778125e+03 9.71561035e+03 9.85258301e+03 9.80346680e+03 1.00282061e+04 9.96720703e+03 9.74082812e+03 1.01141729e+04 1.04319912e+04 1.00769180e+04 1.02076396e+04 1.01639189e+04 9.81001562e+03 1.01911309e+04 1.04657627e+04 1.02128047e+04 1.03513750e+04 1.05791865e+04 1.05524844e+04 1.07348633e+04 1.04444707e+04 1.03849844e+04 1.06124980e+04 1.08177363e+04 1.09199355e+04 1.04683242e+04 1.04378213e+04 1.08075059e+04 1.10771787e+04 1.10713047e+04 1.07925156e+04 1.06891787e+04 1.12182363e+04 1.15977832e+04 1.10810029e+04 1.08513174e+04 1.08845537e+04 1.13895742e+04 1.16147666e+04 1.11952373e+04 1.10703262e+04 1.11441621e+04 1.12815352e+04 1.14268730e+04 1.17027051e+04 1.15053867e+04 1.13254043e+04 1.16966436e+04 1.18705469e+04 1.16738760e+04 1.11331025e+04 1.14000400e+04 1.18659805e+04 1.16130127e+04 1.18464268e+04 1.18543848e+04 1.15625518e+04 1.23366406e+04 1.22228643e+04 1.18679561e+04 1.20825410e+04 1.18458184e+04 1.23429170e+04 1.22753213e+04 1.17950518e+04 1.19990400e+04 1.22094922e+04 1.21254082e+04 1.20893887e+04 1.23852793e+04 1.23921211e+04 1.24399033e+04 1.24619463e+04 1.22945742e+04 1.22955312e+04 1.19920791e+04 1.23447676e+04 1.27349551e+04 1.24847314e+04 1.24070283e+04 1.24765225e+04 1.27481816e+04 1.31065654e+04 1.30515176e+04 1.24336650e+04 1.23943418e+04 1.28057500e+04 1.30060703e+04 1.26635996e+04 1.25845811e+04 1.27846660e+04 1.28454922e+04 1.29184131e+04 1.26675410e+04 1.28910049e+04 1.32525850e+04 1.31029512e+04 1.29648076e+04 1.29133320e+04 1.29356211e+04 1.27610557e+04 1.29499961e+04 1.32345576e+04 1.31214287e+04 1.30853750e+04 1.29304316e+04 1.30953574e+04 1.34001133e+04 1.33386602e+04 1.33479346e+04 1.33966631e+04 1.32360703e+04 1.31196221e+04 1.29856729e+04 1.31418936e+04 1.35052852e+04 1.36694609e+04 1.34727461e+04 1.29770967e+04 1.31092959e+04 1.34955430e+04 1.34330547e+04 1.36845293e+04 1.35541689e+04 1.29680537e+04 1.35214619e+04 1.37608477e+04 1.34407012e+04 1.35074580e+04 1.35231963e+04 1.34501074e+04 1.34226729e+04 1.34531816e+04 1.35355791e+04 1.36768760e+04 1.37135127e+04 1.36398389e+04 1.35058613e+04 1.34761602e+04 1.37006328e+04 1.37922080e+04 1.36995420e+04 1.33888340e+04 1.34723789e+04 1.39047500e+04 1.36862432e+04 1.38043271e+04
    6.97782129e+03 6.94467090e+03 6.95161035e+03 6.97927637e+03 7.00320557e+03 7.10877393e+03 7.19230322e+03 7.05862891e+03 7.06849072e+03 7.36995020e+03 7.45164014e+03 7.41524170e+03 7.43324756e+03 7.61909082e+03 7.34020654e+03 7.53563330e+03 7.95161230e+03 7.49649463e+03 7.47431738e+03 7.77538037e+03 7.81719873e+03 7.65824170e+03 7.77463477e+03 7.91911426e+03 7.98854688e+03 8.15355176e+03 8.23770508e+03 8.10216504e+03 8.14721338e+03 8.19168457e+03 8.25039355e+03 8.45703906e+03 8.06783789e+03 8.29177051e+03 8.90166699e+03 8.48887695e+03 8.24611035e+03 8.64470215e+03 8.64498828e+03 8.55856738e+03 8.67346191e+03 8.69708008e+03 8.91260352e+03 9.03067480e+03 9.00871484e+03 9.00024023e+03 8.84311523e+03 8.97859668e+03 9.14518262e+03 9.11996094e+03 9.27939648e+03 9.33478125e+03 9.34694922e+03 9.24871289e+03 9.23407715e+03 9.50616699e+03 9.52044434e+03 9.37153711e+03 9.55270117e+03 9.57774316e+03 9.57081934e+03 9.78197266e+03 9.63345215e+03 9.64935449e+03 9.96148828e+03 9.68077051e+03 9.82172266e+03 1.01683994e+04 9.91363086e+03 9.93781348e+03 1.02595928e+04 1.01624785e+04 1.01804033e+04 1.00759990e+04 9.70037793e+03 1.02460361e+04 1.06200732e+04 1.02432422e+04 1.02232920e+04 1.04315752e+04 1.04786582e+04 1.07768730e+04 1.04738740e+04 1.03917256e+04 1.05452354e+04 1.07237627e+04 1.08742559e+04 1.06566875e+04 1.06764473e+04 1.08132383e+04 1.09522793e+04 1.09931572e+04 1.09094697e+04 1.08758662e+04 1.11600928e+04 1.11694355e+04 1.11676006e+04 1.10349590e+04 1.09053516e+04 1.13818691e+04 1.14029521e+04 1.11009219e+04 1.12168467e+04 1.11429961e+04 1.12376514e+04 1.16591738e+04 1.16065000e+04 1.13160645e+04 1.14316699e+04 1.16304170e+04 1.17682285e+04 1.17347959e+04 1.13993936e+04 1.15326025e+04 1.16785996e+04 1.15270137e+04 1.17309004e+04 1.20640068e+04 1.18948965e+04 1.20841133e+04 1.19824141e+04 1.20473770e+04 1.22526592e+04 1.16007441e+04 1.19917715e+04 1.23617754e+04 1.18222061e+04 1.18030732e+04 1.21979678e+04 1.23289131e+04 1.23694502e+04 1.23162354e+04 1.20767842e+04 1.24854951e+04 1.28940508e+04 1.21816338e+04 1.19857344e+04 1.24462832e+04 1.26402207e+04 1.25064502e+04 1.23918682e+04 1.23209990e+04 1.25029463e+04 1.27924668e+04 1.26769756e+04 1.28337100e+04 1.27537783e+04 1.24443086e+04 1.26640449e+04 1.28846787e+04 1.27400410e+04 1.25312012e+04 1.25504697e+04 1.28693350e+04 1.30003701e+04 1.29354150e+04 1.28549111e+04 1.30255547e+04 1.31457168e+04 1.31093008e+04 1.31547959e+04 1.25957129e+04 1.26510225e+04 1.34539082e+04 1.33404521e+04 1.29956865e+04 1.29036279e+04 1.28796230e+04 1.32379160e+04 1.33315469e+04 1.32727207e+04 1.33072510e+04 1.32686963e+04 1.33078672e+04 1.31063154e+04 1.32559307e+04 1.32790527e+04 1.30400234e+04 1.34658652e+04 1.36673359e+04 1.32504971e+04 1.29538770e+04 1.31742119e+04 1.34650332e+04 1.39102461e+04 1.39340195e+04 1.31702344e+04 1.33668154e+04 1.36082676e+04 1.32484873e+04 1.34264170e+04 1.35065146e+04 1.34172871e+04 1.36948086e+04 1.35563564e+04 1.32570137e+04 1.35244111e+04 1.36024424e+04 1.35203770e+04 1.36096035e+04 1.37394883e+04 1.37070186e+04 1.35435068e+04 1.35971592e+04 1.33922939e+04 1.37853672e+04 1.41067031e+04 1.35168057e+04 1.35415850e+04
    6.75013330e+03 6.86031689e+03 6.95607861e+03 7.10001855e+03 7.14677539e+03 7.02302734e+03 7.05599707e+03 6.98623584e+03 7.10741504e+03 7.32009229e+03 7.50423633e+03 7.47967285e+03 7.33072021e+03 7.52749414e+03 7.37167236e+03 7.60221289e+03 7.91583545e+03 7.46769336e+03 7.43574121e+03 7.74468506e+03 7.89369092e+03 7.73403174e+03 7.84975977e+03 7.97926904e+03 7.96316162e+03 7.96355469e+03 7.98622510e+03 8.17332666e+03 8.35208691e+03 8.32433301e+03 8.17290527e+03 8.33249219e+03 8.17682275e+03 8.35196289e+03 8.88875488e+03 8.35266309e+03 8.12366797e+03 8.82304590e+03 8.85702637e+03 8.48834473e+03 8.54756348e+03 8.86633984e+03 8.93357422e+03 8.79746191e+03 8.96899121e+03 9.16204688e+03 8.88133594e+03 9.04718945e+03 9.13437305e+03 8.98125684e+03 9.19960840e+03 9.29432715e+03 9.22202148e+03 9.38688965e+03 9.48308691e+03 9.41075195e+03 9.29341895e+03 9.43745508e+03 9.51799805e+03 9.51799707e+03 9.48925977e+03 9.71212500e+03 9.66646289e+03 9.75329785e+03 9.88974512e+03 9.65467285e+03 9.91796484e+03 1.00892803e+04 9.85328320e+03 9.99481445e+03 1.02601406e+04 1.01096035e+04 1.02118838e+04 1.00798984e+04 9.87170996e+03 1.03654883e+04 1.05851260e+04 1.02287236e+04 1.04641846e+04 1.03977842e+04 1.00360293e+04 1.05585283e+04 1.08053496e+04 1.06761084e+04 1.05774238e+04 1.05832295e+04 1.07504297e+04 1.06669238e+04 1.06900762e+04 1.07250977e+04 1.08055176e+04 1.09018975e+04 1.10035957e+04 1.09100693e+04 1.10546357e+04 1.13459209e+04 1.09825254e+04 1.07692695e+04 1.12303271e+04 1.16501211e+04 1.13624961e+04 1.08519805e+04 1.10355781e+04 1.15861582e+04 1.15782139e+04 1.13296055e+04 1.12767520e+04 1.15058818e+04 1.15459209e+04 1.15907920e+04 1.18145020e+04 1.15785742e+04 1.12199395e+04 1.15628271e+04 1.15769883e+04 1.15863984e+04 1.21162715e+04 1.20473818e+04 1.14930947e+04 1.19794746e+04 1.22822139e+04 1.20428350e+04 1.19473662e+04 1.16388535e+04 1.23424805e+04 1.24720693e+04 1.17887227e+04 1.18161709e+04 1.21926885e+04 1.23428965e+04 1.21620820e+04 1.22175029e+04 1.23141377e+04 1.25524307e+04 1.27554502e+04 1.20536328e+04 1.20366309e+04 1.23886074e+04 1.25749365e+04 1.23710371e+04 1.22115078e+04 1.24820811e+04 1.26275283e+04 1.28174932e+04 1.27003838e+04 1.27959160e+04 1.26440020e+04 1.22977324e+04 1.27141182e+04 1.32945244e+04 1.29409463e+04 1.24455820e+04 1.24149395e+04 1.27142734e+04 1.31142363e+04 1.29797158e+04 1.28215938e+04 1.30115029e+04 1.29967393e+04 1.32083047e+04 1.32066094e+04 1.27554082e+04 1.29941885e+04 1.31382314e+04 1.27516836e+04 1.29055586e+04 1.32626904e+04 1.31577803e+04 1.30090918e+04 1.31005996e+04 1.33416816e+04 1.33933564e+04 1.30749961e+04 1.32928037e+04 1.34094297e+04 1.31320342e+04 1.33032275e+04 1.34052500e+04 1.31755752e+04 1.34010264e+04 1.33901338e+04 1.30121602e+04 1.32569307e+04 1.34368467e+04 1.38562139e+04 1.35175293e+04 1.32006592e+04 1.36077764e+04 1.33935947e+04 1.32449619e+04 1.35569141e+04 1.37654219e+04 1.34756279e+04 1.33990107e+04 1.34250146e+04 1.32710332e+04 1.35471533e+04 1.35608750e+04 1.34749521e+04 1.38131475e+04 1.38227285e+04 1.35977158e+04 1.35137754e+04 1.35038301e+04 1.34144697e+04 1.37723652e+04 1.39348535e+04 1.36188301e+04 1.36317842e+04
    6.84049121e+03 6.82704297e+03 6.95225537e+03 7.04385596e+03 7.07268164e+03 7.06627881e+03 7.22771094e+03 7.13202637e+03 7.08237793e+03 7.27186475e+03 7.38046191e+03 7.32794727e+03 7.44015723e+03 7.54305176e+03 7.51877002e+03 7.77489404e+03 7.61267383e+03 7.48301904e+03 7.63875098e+03 7.73420752e+03 7.91361426e+03 7.64455762e+03 7.65743945e+03 8.04800146e+03 8.15657520e+03 8.04891016e+03 7.86724463e+03 8.20762695e+03 8.26664844e+03 8.12915430e+03 8.17235059e+03 8.54520410e+03 8.47901465e+03 8.28211328e+03 8.59941602e+03 8.41895312e+03 8.36550000e+03 8.69175195e+03 8.58196973e+03 8.53607324e+03 8.74205664e+03 8.71945996e+03 8.77157715e+03 8.72623145e+03 9.14627246e+03 9.13457910e+03 8.73060156e+03 8.94476074e+03 9.05325684e+03 9.13102930e+03 9.25291211e+03 9.25859180e+03 9.29075879e+03 9.32447949e+03 9.50348047e+03 9.61320605e+03 9.26929395e+03 9.25717188e+03 9.53887891e+03 9.82845605e+03 9.50261328e+03 9.53256641e+03 9.55524316e+03 9.69225879e+03 1.01961250e+04 9.84832520e+03 9.65507910e+03 9.91864941e+03 1.00467295e+04 1.01035879e+04 1.01796836e+04 1.00990156e+04 1.03180996e+04 1.02133027e+04 9.82692871e+03 1.01853057e+04 1.04175771e+04 1.03186680e+04 1.05475293e+04 1.03325000e+04 9.97933008e+03 1.06010762e+04 1.07316289e+04 1.05632734e+04 1.07931963e+04 1.07666221e+04 1.07294688e+04 1.05812900e+04 1.04098105e+04 1.07777803e+04 1.12281416e+04 1.08580273e+04 1.06573818e+04 1.08981035e+04 1.12543955e+04 1.13490391e+04 1.08313047e+04 1.07945312e+04 1.13127021e+04 1.13071123e+04 1.13740830e+04 1.08711406e+04 1.09300527e+04 1.17080273e+04 1.15174531e+04 1.14364922e+04 1.15271836e+04 1.14822646e+04 1.12790977e+04 1.18389258e+04 1.21804424e+04 1.14075361e+04 1.11617520e+04 1.16405020e+04 1.16797100e+04 1.15392207e+04 1.17526738e+04 1.19845361e+04 1.15321221e+04 1.17540039e+04 1.25866719e+04 1.21002402e+04 1.17906826e+04 1.17560879e+04 1.21570234e+04 1.24887227e+04 1.17977852e+04 1.19353369e+04 1.22026250e+04 1.21847578e+04 1.23524893e+04 1.20981230e+04 1.22102578e+04 1.24635322e+04 1.27681094e+04 1.24013896e+04 1.20937363e+04 1.24384189e+04 1.24108262e+04 1.23357783e+04 1.24042217e+04 1.23136172e+04 1.25271553e+04 1.27509453e+04 1.25044102e+04 1.28586396e+04 1.28461699e+04 1.26661172e+04 1.27869893e+04 1.27979180e+04 1.27425645e+04 1.25308340e+04 1.26746143e+04 1.28324971e+04 1.28217266e+04 1.29335010e+04 1.29089883e+04 1.30848994e+04 1.30918311e+04 1.32534873e+04 1.33969912e+04 1.25183291e+04 1.28905166e+04 1.30348613e+04 1.26169023e+04 1.32081729e+04 1.33321152e+04 1.31907080e+04 1.28701621e+04 1.28448291e+04 1.34109658e+04 1.35821084e+04 1.30819268e+04 1.31873564e+04 1.32718896e+04 1.30665918e+04 1.34042783e+04 1.35183623e+04 1.32642100e+04 1.33675674e+04 1.31520928e+04 1.29608740e+04 1.33121572e+04 1.34008760e+04 1.38331367e+04 1.38010332e+04 1.33212920e+04 1.33733906e+04 1.33887842e+04 1.33416729e+04 1.34888096e+04 1.36136133e+04 1.35439287e+04 1.34531055e+04 1.32412891e+04 1.33304287e+04 1.36160020e+04 1.37241299e+04 1.36361895e+04 1.35842324e+04 1.37309980e+04 1.35848193e+04 1.34134316e+04 1.35990166e+04 1.38311846e+04 1.35906318e+04 1.36780400e+04 1.38131895e+04 1.34551064e+04
    6.90650830e+03 6.85845947e+03 6.82032031e+03 7.00694336e+03 7.15699219e+03 7.14173389e+03 7.26050098e+03 7.05281055e+03 6.95149951e+03 7.17379297e+03 7.43496143e+03 7.54854688e+03 7.44113672e+03 7.40647754e+03 7.49491260e+03 7.76002100e+03 7.70978467e+03 7.37148340e+03 7.48673096e+03 7.68315479e+03 7.84397168e+03 7.83962598e+03 7.90860889e+03 7.88998926e+03 8.05860498e+03 8.12726758e+03 7.95627441e+03 7.96288232e+03 8.08425977e+03 8.29630176e+03 8.30576758e+03 8.47074609e+03 8.43303906e+03 8.26969824e+03 8.57167578e+03 8.31217188e+03 8.41061328e+03 8.68080664e+03 8.51096094e+03 8.60525879e+03 8.75105566e+03 8.82132227e+03 8.89596387e+03 8.46991016e+03 8.89265625e+03 9.35350977e+03 8.83763086e+03 8.99127539e+03 9.01210547e+03 9.22870117e+03 9.39871973e+03 9.15988477e+03 9.01967773e+03 9.22948828e+03 9.57178125e+03 9.62734961e+03 9.41560742e+03 9.42250098e+03 9.48368359e+03 9.41356641e+03 9.55414844e+03 9.64755859e+03 9.59029688e+03 9.82726465e+03 9.90334766e+03 9.78698047e+03 9.91366699e+03 9.92118457e+03 9.77387402e+03 1.00743574e+04 1.03154453e+04 1.00812314e+04 1.03148506e+04 1.00765010e+04 9.81121289e+03 1.02650391e+04 1.04272393e+04 1.02709219e+04 1.06036758e+04 1.02961562e+04 1.00763125e+04 1.07774365e+04 1.05906523e+04 1.04908408e+04 1.06043418e+04 1.07333535e+04 1.09145098e+04 1.06284375e+04 1.02517852e+04 1.06467061e+04 1.11522920e+04 1.08570938e+04 1.08836846e+04 1.08335225e+04 1.11456416e+04 1.17266406e+04 1.10352168e+04 1.07271045e+04 1.12177637e+04 1.12455938e+04 1.16233613e+04 1.11096816e+04 1.07932139e+04 1.14800781e+04 1.13874277e+04 1.13457939e+04 1.16278389e+04 1.14676709e+04 1.12740605e+04 1.16828604e+04 1.19599590e+04 1.14732949e+04 1.10780840e+04 1.16339395e+04 1.18287793e+04 1.15620693e+04 1.18851162e+04 1.20177100e+04 1.14238242e+04 1.17845469e+04 1.26888770e+04 1.21382432e+04 1.17558271e+04 1.18869229e+04 1.22316680e+04 1.23069902e+04 1.19631660e+04 1.17402979e+04 1.21203545e+04 1.23636396e+04 1.22384922e+04 1.22124639e+04 1.24493555e+04 1.25207588e+04 1.24282090e+04 1.22640869e+04 1.20617266e+04 1.21676631e+04 1.24071406e+04 1.25880273e+04 1.25281445e+04 1.23437559e+04 1.24665146e+04 1.26652910e+04 1.30611592e+04 1.31831016e+04 1.25214629e+04 1.24074658e+04 1.27358457e+04 1.28819326e+04 1.26277529e+04 1.27185537e+04 1.28233711e+04 1.27669463e+04 1.28233486e+04 1.27570039e+04 1.29322578e+04 1.31864453e+04 1.31372979e+04 1.30882812e+04 1.29755957e+04 1.27454062e+04 1.28083770e+04 1.27224414e+04 1.30028633e+04 1.34060264e+04 1.30864521e+04 1.30340391e+04 1.29298916e+04 1.31683496e+04 1.37106807e+04 1.33389951e+04 1.28378389e+04 1.32114404e+04 1.34542773e+04 1.29751758e+04 1.31957197e+04 1.37974678e+04 1.35047275e+04 1.32416797e+04 1.30592188e+04 1.31480547e+04 1.33837373e+04 1.34515020e+04 1.38161914e+04 1.33427266e+04 1.30514043e+04 1.35123496e+04 1.36750254e+04 1.37367109e+04 1.37500684e+04 1.32652305e+04 1.32233838e+04 1.35122432e+04 1.33905039e+04 1.36162510e+04 1.36259717e+04 1.35080254e+04 1.37257168e+04 1.36913320e+04 1.35800332e+04 1.35355342e+04 1.35593350e+04 1.36131582e+04 1.35754199e+04 1.34795156e+04 1.36864375e+04 1.39566943e+04 1.37915166e+04
    6.97732178e+03 6.90647412e+03 6.81374268e+03 7.10081055e+03 7.04626562e+03 6.98268701e+03 7.29247607e+03 7.15138965e+03 7.01060352e+03 7.27221045e+03 7.40652002e+03 7.43458545e+03 7.57619385e+03 7.49499463e+03 7.33009766e+03 7.64953223e+03 7.82297217e+03 7.43558154e+03 7.47898096e+03 7.77037695e+03 7.67870264e+03 7.69338721e+03 7.86654492e+03 7.96188965e+03 8.01485010e+03 8.13080176e+03 8.07089014e+03 8.02593994e+03 8.18275977e+03 8.22075391e+03 8.22810449e+03 8.49536621e+03 8.30037305e+03 8.25606250e+03 8.67199512e+03 8.49850293e+03 8.37639453e+03 8.43584375e+03 8.52825488e+03 8.65040234e+03 8.77623926e+03 8.76742383e+03 9.00335352e+03 8.80979785e+03 8.83157422e+03 9.05166699e+03 8.93441895e+03 9.01879688e+03 8.98857227e+03 9.12100879e+03 9.34616699e+03 9.40799316e+03 9.22983008e+03 9.17033984e+03 9.31698047e+03 9.61015332e+03 9.57151562e+03 9.24326660e+03 9.47864941e+03 9.66181543e+03 9.48797070e+03 9.61378613e+03 9.70297656e+03 9.80809375e+03 9.82702930e+03 9.67094531e+03 9.76180176e+03 1.01516484e+04 1.00084697e+04 9.93772656e+03 1.01202041e+04 1.01679365e+04 1.03834805e+04 9.97759766e+03 9.69365820e+03 1.03201025e+04 1.06274551e+04 1.02813086e+04 1.04101240e+04 1.00946807e+04 1.03762090e+04 1.07574414e+04 1.03139922e+04 1.06149971e+04 1.07178242e+04 1.07091289e+04 1.08556895e+04 1.07615098e+04 1.03777695e+04 1.06206299e+04 1.10608145e+04 1.09971387e+04 1.11024658e+04 1.10103291e+04 1.11097578e+04 1.12484238e+04 1.11222744e+04 1.10003936e+04 1.11274717e+04 1.11395010e+04 1.14828418e+04 1.12360439e+04 1.08514629e+04 1.11339873e+04 1.14171016e+04 1.17160225e+04 1.14810977e+04 1.11921885e+04 1.15375322e+04 1.19127227e+04 1.16292559e+04 1.14670312e+04 1.13764297e+04 1.16628730e+04 1.18941328e+04 1.14674531e+04 1.14676016e+04 1.21064912e+04 1.20060918e+04 1.15851992e+04 1.23135977e+04 1.23153057e+04 1.19092646e+04 1.20237832e+04 1.18994492e+04 1.20927783e+04 1.19340840e+04 1.15928701e+04 1.21491406e+04 1.24649287e+04 1.24937920e+04 1.20832119e+04 1.20525771e+04 1.27146357e+04 1.26291709e+04 1.22622363e+04 1.19877148e+04 1.24379111e+04 1.27369512e+04 1.25095859e+04 1.23924355e+04 1.22867783e+04 1.25289355e+04 1.25540889e+04 1.27952236e+04 1.32285977e+04 1.24718096e+04 1.22664492e+04 1.28848799e+04 1.26153906e+04 1.26450986e+04 1.28422852e+04 1.25989854e+04 1.27861143e+04 1.28977910e+04 1.29494883e+04 1.28774102e+04 1.29353154e+04 1.33021260e+04 1.33738789e+04 1.29246162e+04 1.24263682e+04 1.25856582e+04 1.31345898e+04 1.36434453e+04 1.33025693e+04 1.27461787e+04 1.28554756e+04 1.30628418e+04 1.33041875e+04 1.34907100e+04 1.32737783e+04 1.30380479e+04 1.32603496e+04 1.33354482e+04 1.32740684e+04 1.34428887e+04 1.29138018e+04 1.31963730e+04 1.36529287e+04 1.34056758e+04 1.33403086e+04 1.29557412e+04 1.33958389e+04 1.37686045e+04 1.37402793e+04 1.35566738e+04 1.33436846e+04 1.35197891e+04 1.34479639e+04 1.36152754e+04 1.32898828e+04 1.32061846e+04 1.37881484e+04 1.36686201e+04 1.34066562e+04 1.32384424e+04 1.34258135e+04 1.39207881e+04 1.37732207e+04 1.35697959e+04 1.34311260e+04 1.34022764e+04 1.36514707e+04 1.35721865e+04 1.36483311e+04 1.40063604e+04 1.37958262e+04 1.34214912e+04
    6.77265332e+03 6.81074219e+03 6.95586377e+03 7.14784961e+03 7.15969092e+03 6.96644678e+03 7.06678760e+03 7.09079443e+03 7.17337451e+03 7.29312744e+03 7.36943262e+03 7.44471582e+03 7.53558301e+03 7.47693604e+03 7.36643457e+03 7.66302051e+03 7.81742041e+03 7.42243848e+03 7.46577344e+03 7.77738525e+03 7.73533984e+03 7.83155908e+03 7.98199414e+03 7.93896094e+03 7.99934473e+03 7.93694336e+03 8.04999170e+03 8.16092627e+03 8.32849707e+03 8.40223145e+03 8.07110889e+03 8.26625781e+03 8.28722754e+03 8.47249414e+03 8.69591309e+03 8.32080566e+03 8.26969238e+03 8.62976270e+03 8.70386914e+03 8.61150586e+03 8.70352832e+03 8.89134375e+03 8.96401660e+03 8.71320312e+03 8.81264160e+03 9.23379004e+03 8.87884570e+03 8.99983789e+03 9.03250684e+03 8.88576660e+03 9.37942578e+03 9.38661816e+03 9.15136719e+03 9.28339941e+03 9.39262988e+03 9.57574219e+03 9.54528906e+03 9.41692773e+03 9.49344336e+03 9.47635449e+03 9.52058008e+03 9.48331348e+03 9.73639355e+03 9.90301074e+03 9.68596289e+03 9.58166016e+03 9.96064648e+03 1.01378779e+04 9.92828027e+03 9.98916211e+03 1.00914229e+04 1.01778945e+04 1.02732246e+04 1.00380664e+04 9.89647754e+03 1.04457822e+04 1.06856943e+04 1.02551465e+04 1.04774873e+04 1.01040713e+04 1.01682422e+04 1.06475215e+04 1.05801260e+04 1.07501924e+04 1.07487695e+04 1.05232939e+04 1.06605273e+04 1.09357012e+04 1.04747334e+04 1.05267041e+04 1.10010537e+04 1.10816123e+04 1.10452568e+04 1.09407236e+04 1.11279258e+04 1.12731221e+04 1.09797949e+04 1.08501299e+04 1.11572959e+04 1.15740049e+04 1.15219688e+04 1.10210967e+04 1.08055625e+04 1.12356787e+04 1.18112080e+04 1.15645107e+04 1.11357910e+04 1.12678350e+04 1.17373672e+04 1.19250137e+04 1.15441953e+04 1.14287676e+04 1.12900654e+04 1.14861660e+04 1.17261660e+04 1.15405859e+04 1.18573809e+04 1.21872539e+04 1.18848916e+04 1.17219668e+04 1.21366621e+04 1.20342754e+04 1.17838506e+04 1.22109004e+04 1.22937119e+04 1.20786357e+04 1.18365225e+04 1.16471621e+04 1.21866973e+04 1.24568281e+04 1.21908145e+04 1.21356201e+04 1.23423926e+04 1.25489229e+04 1.25185947e+04 1.22706738e+04 1.20782324e+04 1.24697021e+04 1.26315703e+04 1.22505176e+04 1.22484463e+04 1.25809336e+04 1.26789268e+04 1.26100996e+04 1.27415371e+04 1.29444102e+04 1.23521768e+04 1.22369092e+04 1.29775957e+04 1.30624082e+04 1.28879180e+04 1.27311104e+04 1.24141855e+04 1.26947881e+04 1.31040342e+04 1.28650801e+04 1.27007666e+04 1.29661768e+04 1.32254678e+04 1.34586953e+04 1.27800303e+04 1.26802939e+04 1.29305537e+04 1.29832344e+04 1.33729590e+04 1.30640947e+04 1.28889990e+04 1.29437910e+04 1.32105459e+04 1.31626123e+04 1.31542559e+04 1.34563340e+04 1.32719561e+04 1.31080166e+04 1.33383301e+04 1.33233936e+04 1.33381338e+04 1.30645547e+04 1.31305068e+04 1.35774727e+04 1.35823604e+04 1.33966064e+04 1.29341484e+04 1.33302188e+04 1.37106650e+04 1.34734541e+04 1.34987051e+04 1.35367910e+04 1.34393223e+04 1.32416016e+04 1.36616562e+04 1.38745293e+04 1.31815449e+04 1.33602354e+04 1.37300742e+04 1.32609238e+04 1.33598398e+04 1.35798906e+04 1.37247559e+04 1.39485332e+04 1.36065410e+04 1.33331592e+04 1.35480654e+04 1.36343340e+04 1.33486992e+04 1.36797188e+04 1.41142578e+04 1.37574980e+04 1.34192910e+04
    6.77331543e+03 6.79343750e+03 6.97504395e+03 7.11947852e+03 7.06328271e+03 6.98498828e+03 7.15678125e+03 7.19729248e+03 7.17631494e+03 7.28338623e+03 7.26341943e+03 7.31060596e+03 7.60602979e+03 7.57041016e+03 7.46726904e+03 7.81199268e+03 7.57279541e+03 7.35195410e+03 7.70913330e+03 7.87098389e+03 7.82744580e+03 7.63125977e+03 7.71201855e+03 7.98771387e+03 8.28971094e+03 7.93841113e+03 7.91743555e+03 8.28900195e+03 8.24796875e+03 8.13482666e+03 8.15635791e+03 8.49841211e+03 8.37080664e+03 8.34672070e+03 8.64329395e+03 8.36929102e+03 8.40527148e+03 8.72458789e+03 8.47375879e+03 8.44192676e+03 8.94824512e+03 8.75444434e+03 8.57387402e+03 8.97556445e+03 9.18353027e+03 9.15249902e+03 8.77396875e+03 8.93578809e+03 8.93658301e+03 9.00653223e+03 9.50506250e+03 9.29965625e+03 9.30145215e+03 9.19807324e+03 9.17789062e+03 9.59717188e+03 9.51074512e+03 9.42108789e+03 9.60443848e+03 9.71948926e+03 9.52527441e+03 9.48265723e+03 9.66104102e+03 9.71448145e+03 9.87799707e+03 9.78220996e+03 9.66898047e+03 9.93828906e+03 1.01282900e+04 1.00697734e+04 1.00848428e+04 1.01644883e+04 1.02687979e+04 1.01934082e+04 9.85370801e+03 1.01910977e+04 1.05087852e+04 1.03160068e+04 1.03375801e+04 1.01266162e+04 1.04763408e+04 1.06036396e+04 1.02495869e+04 1.06460068e+04 1.10527354e+04 1.07268838e+04 1.05621953e+04 1.07617012e+04 1.04467109e+04 1.08222939e+04 1.12669180e+04 1.08769648e+04 1.07134121e+04 1.09701992e+04 1.12676611e+04 1.11988418e+04 1.08811699e+04 1.09239531e+04 1.10933379e+04 1.14067510e+04 1.15166377e+04 1.09396729e+04 1.09563525e+04 1.13367969e+04 1.16142168e+04 1.15866719e+04 1.13475146e+04 1.13521104e+04 1.14670166e+04 1.19978936e+04 1.20003545e+04 1.14185146e+04 1.12196074e+04 1.14753633e+04 1.18043369e+04 1.15892598e+04 1.16464287e+04 1.19826719e+04 1.17495879e+04 1.18322939e+04 1.22946953e+04 1.18129434e+04 1.17629453e+04 1.21587812e+04 1.22267715e+04 1.22739814e+04 1.17781963e+04 1.18948135e+04 1.21966182e+04 1.21830186e+04 1.23248994e+04 1.22167266e+04 1.20942881e+04 1.21999746e+04 1.26176250e+04 1.27768770e+04 1.23063516e+04 1.23541865e+04 1.24573896e+04 1.21598193e+04 1.24706553e+04 1.25960918e+04 1.25721514e+04 1.27544609e+04 1.24793359e+04 1.26773398e+04 1.26392383e+04 1.26917842e+04 1.30936602e+04 1.26451494e+04 1.27461289e+04 1.27081611e+04 1.26255928e+04 1.28357539e+04 1.28849277e+04 1.27535547e+04 1.27639961e+04 1.31438311e+04 1.32824404e+04 1.33642607e+04 1.28667480e+04 1.27303994e+04 1.28540234e+04 1.29458818e+04 1.32485771e+04 1.31473643e+04 1.29542910e+04 1.29326543e+04 1.32081338e+04 1.30311914e+04 1.30902129e+04 1.35822861e+04 1.35535576e+04 1.31252402e+04 1.30309775e+04 1.31911982e+04 1.34078379e+04 1.31674531e+04 1.32458965e+04 1.35099941e+04 1.33873262e+04 1.32699082e+04 1.29940234e+04 1.32556162e+04 1.37050469e+04 1.38052598e+04 1.35389004e+04 1.34847666e+04 1.34443682e+04 1.31545518e+04 1.34613682e+04 1.38655430e+04 1.34080820e+04 1.33496191e+04 1.35885430e+04 1.31627656e+04 1.34952471e+04 1.40593770e+04 1.38463877e+04 1.35734971e+04 1.34008652e+04 1.34198604e+04 1.36543145e+04 1.38501084e+04 1.33849043e+04 1.33973213e+04 1.41594180e+04 1.37453281e+04 1.32480635e+04
    6.86240186e+03 6.88836475e+03 6.90097803e+03 6.98417139e+03 7.07449609e+03 7.10725635e+03 7.17174707e+03 7.12478564e+03 7.06129395e+03 7.23178662e+03 7.43458740e+03 7.44595605e+03 7.51652197e+03 7.40351660e+03 7.38546387e+03 7.88848047e+03 7.64891455e+03 7.42779443e+03 7.56422021e+03 7.66421777e+03 7.83013525e+03 7.90666602e+03 7.74896338e+03 7.89589697e+03 8.12162354e+03 7.97713525e+03 8.09986621e+03 8.15938281e+03 8.10367090e+03 8.27327148e+03 8.26138086e+03 8.36505566e+03 8.26189160e+03 8.39733398e+03 8.59398438e+03 8.33071875e+03 8.52444434e+03 8.75094043e+03 8.30543652e+03 8.42859570e+03 8.95684180e+03 8.83055566e+03 8.60532324e+03 8.82993555e+03 9.22274805e+03 9.31985449e+03 8.80450000e+03 8.86303906e+03 8.89869727e+03 9.12948633e+03 9.62206543e+03 9.31218555e+03 9.13851953e+03 9.19178027e+03 9.13272559e+03 9.51010742e+03 9.77299316e+03 9.67378320e+03 9.48104102e+03 9.44279883e+03 9.69344434e+03 9.66602734e+03 9.61733789e+03 9.71222461e+03 9.68205273e+03 9.76204785e+03 9.90956348e+03 9.98737988e+03 9.82129395e+03 1.00780967e+04 1.03829189e+04 1.01549346e+04 1.01878691e+04 1.00886387e+04 9.92607227e+03 1.02220391e+04 1.05049180e+04 1.02523213e+04 1.01459580e+04 1.03211182e+04 1.05848184e+04 1.06902480e+04 1.03735186e+04 1.04869648e+04 1.07564102e+04 1.06839561e+04 1.07455234e+04 1.06958975e+04 1.04398252e+04 1.07982305e+04 1.11324160e+04 1.09125889e+04 1.08008770e+04 1.09148281e+04 1.11324863e+04 1.14923174e+04 1.11421855e+04 1.08028730e+04 1.09175195e+04 1.14264111e+04 1.16382178e+04 1.10514082e+04 1.10451807e+04 1.12258496e+04 1.12850049e+04 1.14025166e+04 1.16010928e+04 1.15554502e+04 1.13407734e+04 1.16360889e+04 1.19261260e+04 1.16025283e+04 1.12009375e+04 1.14116133e+04 1.17703086e+04 1.18045713e+04 1.19933975e+04 1.18940518e+04 1.14372920e+04 1.20507129e+04 1.25404902e+04 1.17664033e+04 1.16844482e+04 1.20596143e+04 1.23962314e+04 1.24180059e+04 1.17976055e+04 1.19205977e+04 1.21974502e+04 1.21931553e+04 1.22076865e+04 1.24354160e+04 1.22329717e+04 1.19993154e+04 1.24717852e+04 1.24876523e+04 1.23095732e+04 1.22971982e+04 1.23310908e+04 1.23266973e+04 1.25819521e+04 1.25728926e+04 1.25970293e+04 1.29595225e+04 1.28400146e+04 1.25965361e+04 1.25469033e+04 1.26726650e+04 1.27953535e+04 1.29738711e+04 1.27273340e+04 1.26093076e+04 1.27104902e+04 1.27774209e+04 1.29985391e+04 1.26563867e+04 1.28107500e+04 1.33263125e+04 1.32024307e+04 1.30054062e+04 1.28380850e+04 1.28670654e+04 1.27183525e+04 1.29366885e+04 1.32897744e+04 1.33137725e+04 1.28711572e+04 1.27863281e+04 1.33275723e+04 1.32044258e+04 1.33117744e+04 1.35509434e+04 1.33273828e+04 1.30768174e+04 1.31391328e+04 1.30811191e+04 1.32055586e+04 1.35484473e+04 1.35697246e+04 1.34904482e+04 1.31480254e+04 1.31288672e+04 1.32383027e+04 1.33790635e+04 1.37039570e+04 1.34603047e+04 1.32235635e+04 1.36299805e+04 1.37292148e+04 1.34756875e+04 1.35132959e+04 1.35012314e+04 1.33154502e+04 1.34483057e+04 1.35414395e+04 1.34635332e+04 1.37897568e+04 1.36384111e+04 1.37007207e+04 1.36702188e+04 1.34059395e+04 1.36925137e+04 1.38179600e+04 1.37632969e+04 1.31123564e+04 1.32932295e+04 1.41576104e+04 1.38290557e+04 1.37231982e+04
    6.86260400e+03 6.92745752e+03 6.85758984e+03 7.01230322e+03 7.11903174e+03 7.07448340e+03 7.19749414e+03 7.12241650e+03 7.01528662e+03 7.24531396e+03 7.43969238e+03 7.42267822e+03 7.50088672e+03 7.38821338e+03 7.47763721e+03 7.87902197e+03 7.63636328e+03 7.41393848e+03 7.63162305e+03 7.72378418e+03 7.82925537e+03 7.86547949e+03 7.78482471e+03 7.90147900e+03 8.03893604e+03 8.07222461e+03 8.22312500e+03 8.07773633e+03 8.01262695e+03 8.27650684e+03 8.34089160e+03 8.38975488e+03 8.27246875e+03 8.32064844e+03 8.60507520e+03 8.35142285e+03 8.55208301e+03 8.72245508e+03 8.39159766e+03 8.49034375e+03 8.88369238e+03 8.82368945e+03 8.59037402e+03 8.82486328e+03 9.24895117e+03 9.29312207e+03 8.85921973e+03 8.89044336e+03 8.93842285e+03 9.17161914e+03 9.53445996e+03 9.23192480e+03 9.08171875e+03 9.25960254e+03 9.42506250e+03 9.39741211e+03 9.59227832e+03 9.60338281e+03 9.52305371e+03 9.49688184e+03 9.57457422e+03 9.64543750e+03 9.61021191e+03 9.69207910e+03 9.81203906e+03 9.81826172e+03 9.89547461e+03 9.98262988e+03 9.78669141e+03 1.01394170e+04 1.03664746e+04 1.01063105e+04 1.02533213e+04 1.01382832e+04 9.90764062e+03 1.02253281e+04 1.04517695e+04 1.04007559e+04 1.01489902e+04 1.00746152e+04 1.06884082e+04 1.08397949e+04 1.03001152e+04 1.05095996e+04 1.08193672e+04 1.07886768e+04 1.08400283e+04 1.05859512e+04 1.05085137e+04 1.07930850e+04 1.10771865e+04 1.09237256e+04 1.07462471e+04 1.09813682e+04 1.11389990e+04 1.14190537e+04 1.12072559e+04 1.08467314e+04 1.09256406e+04 1.13756045e+04 1.15825322e+04 1.11099268e+04 1.11586592e+04 1.12374521e+04 1.12782490e+04 1.14340010e+04 1.16012441e+04 1.15179619e+04 1.14167568e+04 1.16383018e+04 1.18134453e+04 1.16133115e+04 1.12513389e+04 1.14646279e+04 1.17309648e+04 1.17856396e+04 1.19354873e+04 1.17319014e+04 1.14878281e+04 1.21989648e+04 1.26181953e+04 1.19020205e+04 1.16851357e+04 1.19516240e+04 1.22894131e+04 1.23789141e+04 1.19032646e+04 1.20056436e+04 1.21904277e+04 1.23076123e+04 1.22010264e+04 1.22112861e+04 1.20791836e+04 1.23041377e+04 1.26296074e+04 1.22238701e+04 1.24609111e+04 1.22610752e+04 1.21590049e+04 1.22730596e+04 1.25397080e+04 1.28058779e+04 1.28003828e+04 1.28636533e+04 1.26188428e+04 1.27372656e+04 1.26734932e+04 1.25640781e+04 1.28127178e+04 1.29353086e+04 1.26587432e+04 1.26446396e+04 1.27347041e+04 1.27733867e+04 1.29767227e+04 1.27392559e+04 1.29097100e+04 1.31590107e+04 1.31851025e+04 1.29827607e+04 1.29192783e+04 1.30441240e+04 1.25752256e+04 1.29524883e+04 1.33233506e+04 1.31976562e+04 1.30294482e+04 1.30245332e+04 1.30604336e+04 1.32971299e+04 1.35632412e+04 1.31054580e+04 1.32443604e+04 1.33611553e+04 1.31818604e+04 1.30351484e+04 1.32989434e+04 1.33725000e+04 1.35718320e+04 1.34867021e+04 1.29588115e+04 1.32708818e+04 1.34612910e+04 1.33643838e+04 1.35477793e+04 1.34997363e+04 1.32971084e+04 1.37827314e+04 1.35891250e+04 1.32855479e+04 1.36098750e+04 1.34134912e+04 1.34035098e+04 1.34943027e+04 1.34273438e+04 1.35468584e+04 1.36691465e+04 1.35257070e+04 1.37964795e+04 1.37215537e+04 1.34362920e+04 1.37296182e+04 1.38498096e+04 1.37131455e+04 1.31225000e+04 1.34050244e+04 1.41601611e+04 1.38408184e+04 1.36921523e+04
    6.95370801e+03 6.93121094e+03 6.78537354e+03 7.02388672e+03 7.14521191e+03 7.10881738e+03 7.21869336e+03 7.08941455e+03 7.00743213e+03 7.24615576e+03 7.48383350e+03 7.48368896e+03 7.43768018e+03 7.37891162e+03 7.46156201e+03 7.92803564e+03 7.69471143e+03 7.46571289e+03 7.55231934e+03 7.70156396e+03 7.86915430e+03 7.84835400e+03 7.73558008e+03 7.96132764e+03 8.04287012e+03 8.11533398e+03 8.26772168e+03 8.02450439e+03 7.97102295e+03 8.25599902e+03 8.41359277e+03 8.40563379e+03 8.29154785e+03 8.38138574e+03 8.67208594e+03 8.25835449e+03 8.52204590e+03 8.69987402e+03 8.40998828e+03 8.70028809e+03 8.83107520e+03 8.70498633e+03 8.79451367e+03 8.89461719e+03 9.17218164e+03 9.23929199e+03 8.77761230e+03 8.86997266e+03 9.12430273e+03 9.21817383e+03 9.36690527e+03 9.19263574e+03 9.08835449e+03 9.33778418e+03 9.48691113e+03 9.49315039e+03 9.60151758e+03 9.47192090e+03 9.48122754e+03 9.58281250e+03 9.53254102e+03 9.59649219e+03 9.59983887e+03 9.76217188e+03 9.80233594e+03 9.75908008e+03 1.00293164e+04 1.00038975e+04 9.77585254e+03 1.01122666e+04 1.03194639e+04 1.01229844e+04 1.03315840e+04 1.01506719e+04 9.87981152e+03 1.01895361e+04 1.03795146e+04 1.04890527e+04 1.01795586e+04 9.92852539e+03 1.07162461e+04 1.10818350e+04 1.04669521e+04 1.04942734e+04 1.06378125e+04 1.07681875e+04 1.09367998e+04 1.05515537e+04 1.05045010e+04 1.07548486e+04 1.10546973e+04 1.09918350e+04 1.07671943e+04 1.08987803e+04 1.11296582e+04 1.15544756e+04 1.12177686e+04 1.07810713e+04 1.10182861e+04 1.13724004e+04 1.14909971e+04 1.11563789e+04 1.11363184e+04 1.12002656e+04 1.12976123e+04 1.14635029e+04 1.17192334e+04 1.16389473e+04 1.13833809e+04 1.15874033e+04 1.17695195e+04 1.16366045e+04 1.12309775e+04 1.14305762e+04 1.18325732e+04 1.18424971e+04 1.18928955e+04 1.16616914e+04 1.15266230e+04 1.22182070e+04 1.25836133e+04 1.20028115e+04 1.17720762e+04 1.19355322e+04 1.22694111e+04 1.23862002e+04 1.18609238e+04 1.19627715e+04 1.22747744e+04 1.22816768e+04 1.21644678e+04 1.21795576e+04 1.22451826e+04 1.25416650e+04 1.25481904e+04 1.20852275e+04 1.24363848e+04 1.22407402e+04 1.22026348e+04 1.23942285e+04 12547. 1.27343105e+04 1.27809854e+04 1.27409092e+04 1.28175078e+04 1.29226250e+04 1.25430342e+04 1.25044004e+04 1.27994092e+04 1.29078164e+04 1.26302500e+04 1.26955283e+04 1.27866123e+04 1.28067393e+04 1.29339072e+04 1.27695938e+04 1.30777070e+04 1.30593789e+04 1.31031094e+04 1.30995830e+04 1.29430566e+04 1.29051836e+04 1.27748662e+04 1.29969531e+04 1.31638086e+04 1.33329170e+04 1.30245596e+04 1.31008330e+04 1.31073281e+04 1.32015654e+04 1.34877715e+04 1.31561172e+04 1.32787314e+04 1.33296162e+04 1.31931719e+04 1.30845723e+04 1.32573896e+04 1.32529111e+04 1.37275039e+04 1.36397617e+04 1.28670693e+04 1.32783604e+04 1.35355205e+04 1.34008193e+04 1.35215908e+04 1.36652529e+04 1.33113555e+04 1.35020713e+04 1.36061270e+04 1.33244863e+04 1.36045547e+04 1.35383965e+04 1.34442793e+04 1.34858076e+04 1.34327178e+04 1.35778555e+04 1.35494707e+04 1.35646846e+04 1.38706807e+04 1.36459199e+04 1.34437441e+04 1.37319941e+04 1.39424258e+04 1.36557852e+04 1.33476953e+04 1.36517686e+04 1.38701328e+04 1.39249844e+04 1.38269814e+04
    6.79409277e+03 6.79719824e+03 6.86074219e+03 7.15789893e+03 7.21496826e+03 7.17608496e+03 7.13884082e+03 7.12573926e+03 7.08885742e+03 7.24391748e+03 7.41111230e+03 7.32982080e+03 7.42827344e+03 7.51006299e+03 7.69719824e+03 7.95884863e+03 7.54875928e+03 7.39637305e+03 7.67644385e+03 7.85063721e+03 7.93394531e+03 7.73690674e+03 7.64392725e+03 8.00998438e+03 8.32803711e+03 8.07551367e+03 8.04489014e+03 8.15667822e+03 8.04923535e+03 8.19592188e+03 8.33924609e+03 8.53513574e+03 8.49757422e+03 8.39896289e+03 8.63555371e+03 8.26101172e+03 8.46237988e+03 8.90173242e+03 8.53591406e+03 8.71437402e+03 8.86022168e+03 8.70883008e+03 8.63294531e+03 8.72081836e+03 9.16792578e+03 9.31639551e+03 8.80346973e+03 8.90717676e+03 9.21234277e+03 9.24064355e+03 9.32108887e+03 9.03452051e+03 9.07934277e+03 9.44913184e+03 9.76863281e+03 9.56283105e+03 9.24796875e+03 9.41993262e+03 9.63629492e+03 9.70726367e+03 9.46562988e+03 9.49255664e+03 9.50049219e+03 9.69045410e+03 1.01220771e+04 1.00449072e+04 9.95207031e+03 9.71561914e+03 9.87504102e+03 1.03402646e+04 1.03219131e+04 1.00779326e+04 1.03119395e+04 1.03272773e+04 1.00102510e+04 1.01400928e+04 1.03319102e+04 1.05088467e+04 1.03144355e+04 1.00085752e+04 1.05437539e+04 1.11227412e+04 1.06384199e+04 1.04646943e+04 1.08671016e+04 1.09163281e+04 1.06943057e+04 1.04642295e+04 1.04461162e+04 1.08439697e+04 1.14242139e+04 1.11542998e+04 1.04187822e+04 1.06213770e+04 1.14830908e+04 1.16209678e+04 1.08447559e+04 1.07426787e+04 1.11275049e+04 1.14765869e+04 1.15440693e+04 1.10826846e+04 1.10548691e+04 1.14400977e+04 1.16172168e+04 1.14757100e+04 1.16981377e+04 1.16263984e+04 1.13195234e+04 1.18700488e+04 1.19549775e+04 1.15175645e+04 1.10261348e+04 1.13514639e+04 1.19414092e+04 1.18041182e+04 1.18388857e+04 1.16325957e+04 1.16139375e+04 1.22667324e+04 1.25540391e+04 1.19429102e+04 1.17111221e+04 1.20514619e+04 1.25263477e+04 1.23394219e+04 1.18094561e+04 1.21919727e+04 1.22831006e+04 1.21458955e+04 1.20816553e+04 1.21493369e+04 1.25155498e+04 1.25409775e+04 1.24932793e+04 1.25801035e+04 1.24238174e+04 1.19612383e+04 1.21294258e+04 1.24204648e+04 1.26703633e+04 1.27519756e+04 1.26132158e+04 1.26704189e+04 1.27791201e+04 1.30159092e+04 1.26575146e+04 1.26920742e+04 1.30582998e+04 1.28759893e+04 1.26052168e+04 1.25951240e+04 1.29488320e+04 1.29283604e+04 1.28503008e+04 1.25123281e+04 1.30641201e+04 1.33207217e+04 1.30272393e+04 1.31972012e+04 1.31452139e+04 1.32350576e+04 1.28235928e+04 1.26130918e+04 1.29995107e+04 1.33378770e+04 1.32903701e+04 1.33569893e+04 1.29607539e+04 1.29458750e+04 1.33556074e+04 1.33054453e+04 1.36142422e+04 1.33175391e+04 1.30838311e+04 1.30343740e+04 1.32482314e+04 1.35477715e+04 1.37801064e+04 1.35007178e+04 1.27764541e+04 1.32323086e+04 1.36888291e+04 1.33852012e+04 1.35376777e+04 1.36625830e+04 1.32536787e+04 1.36204629e+04 1.35175488e+04 1.32337695e+04 1.36698857e+04 1.38887988e+04 1.36383125e+04 1.31687988e+04 1.32317393e+04 1.35342402e+04 1.37086250e+04 1.40071396e+04 1.38631094e+04 1.35621523e+04 1.34361582e+04 1.35717246e+04 1.40194424e+04 1.38173135e+04 1.36564766e+04 1.35729834e+04 1.35754199e+04 1.40064268e+04 1.37849258e+04
    7.01969189e+03 6.87488281e+03 6.80136768e+03 7.07229150e+03 7.11083008e+03 7.24208691e+03 7.42178955e+03 7.13559521e+03 6.99917090e+03 7.22922998e+03 7.45529639e+03 7.37678467e+03 7.47019287e+03 7.61677051e+03 7.63165186e+03 7.94207715e+03 7.67397510e+03 7.41562793e+03 7.71860107e+03 7.82486133e+03 7.91739502e+03 7.66867139e+03 7.61961182e+03 8.06926465e+03 8.45865625e+03 8.19709180e+03 8.02455420e+03 8.20522461e+03 8.03552979e+03 8.05267480e+03 8.49519629e+03 8.69035449e+03 8.37910742e+03 8.32605078e+03 8.64238086e+03 8.40275586e+03 8.59877930e+03 8.76790527e+03 8.35239062e+03 8.76725293e+03 9.05109375e+03 8.70392188e+03 8.62607324e+03 8.94447754e+03 9.24033984e+03 9.25813770e+03 8.77272266e+03 8.92562500e+03 9.22559277e+03 9.43354395e+03 9.45520215e+03 9.11389648e+03 9.19189160e+03 9.32481250e+03 9.49383594e+03 9.76036719e+03 9.56491504e+03 9.31444238e+03 9.71025000e+03 9.86004004e+03 9.58596582e+03 9.76121387e+03 9.51891699e+03 9.65525586e+03 1.01994521e+04 1.00681621e+04 9.86330566e+03 9.80182715e+03 1.00055742e+04 1.02442666e+04 1.04120605e+04 1.02164824e+04 1.04316807e+04 1.03178096e+04 9.86675098e+03 1.00785469e+04 1.04546533e+04 1.04327197e+04 1.02071357e+04 1.02427676e+04 1.09022393e+04 1.11483320e+04 1.05669043e+04 1.03927510e+04 1.06814561e+04 1.10186602e+04 1.10181494e+04 1.04142266e+04 1.03868018e+04 1.11401250e+04 1.15425625e+04 1.10338193e+04 1.05205693e+04 1.06562139e+04 1.14936426e+04 1.17555117e+04 1.09769639e+04 1.09382803e+04 1.10574102e+04 1.14403877e+04 1.15285488e+04 1.11066250e+04 1.13049990e+04 1.13277588e+04 1.13448887e+04 1.16715117e+04 1.21187363e+04 1.15282148e+04 1.10817256e+04 1.18498262e+04 1.22466641e+04 1.17463955e+04 1.11416709e+04 1.14977178e+04 1.21308271e+04 1.17783369e+04 1.16249062e+04 1.17138594e+04 1.17874570e+04 1.22680449e+04 1.24957344e+04 1.20876055e+04 1.20103838e+04 1.19182588e+04 1.22647119e+04 1.24649746e+04 1.18998057e+04 1.21112393e+04 1.22886367e+04 1.21302148e+04 1.23984365e+04 1.25907412e+04 1.24200830e+04 1.21280732e+04 1.25631514e+04 1.29954023e+04 1.22341836e+04 1.21315977e+04 1.25781162e+04 1.26498037e+04 1.27402324e+04 1.24780693e+04 1.23783398e+04 1.26827900e+04 1.31001758e+04 1.31603955e+04 1.26715391e+04 1.29832920e+04 1.29796680e+04 1.24767256e+04 1.25428447e+04 1.28158545e+04 1.31955596e+04 1.31039404e+04 1.27769424e+04 1.26036260e+04 1.30486650e+04 1.33475684e+04 1.32865195e+04 1.31273076e+04 1.32299463e+04 1.30628242e+04 1.26699814e+04 1.28568633e+04 1.33145020e+04 1.36230742e+04 1.30539268e+04 1.29854512e+04 1.32503301e+04 1.31730928e+04 1.34395283e+04 1.35138154e+04 1.35970605e+04 1.33540654e+04 1.30101045e+04 1.31202578e+04 1.31697627e+04 1.36062891e+04 1.41403203e+04 1.36439199e+04 1.29894023e+04 1.30285791e+04 1.33576377e+04 1.35344082e+04 1.37991875e+04 1.40637178e+04 1.33154961e+04 1.33190312e+04 1.37809004e+04 1.35029990e+04 1.35647979e+04 1.36781953e+04 1.36968926e+04 1.35359941e+04 1.34041709e+04 1.36856299e+04 1.36577500e+04 1.39873613e+04 1.40327266e+04 1.34127139e+04 1.34537305e+04 1.37541123e+04 1.39879463e+04 1.39572363e+04 1.37026309e+04 1.36230703e+04 1.37077471e+04 1.39595508e+04 1.40062031e+04
    6.83853613e+03 6.93318604e+03 7.05948633e+03 7.15851904e+03 7.24043994e+03 7.35894482e+03 7.32963965e+03 7.17160303e+03 7.20127539e+03 7.38377881e+03 7.56846582e+03 7.49043066e+03 7.49902490e+03 7.68358203e+03 7.79476074e+03 7.95971924e+03 7.65115234e+03 7.54858545e+03 7.78929346e+03 7.92433057e+03 8.06773584e+03 7.91264746e+03 7.75082080e+03 8.12552197e+03 8.39649219e+03 8.18671484e+03 8.17251465e+03 8.22485742e+03 8.25441797e+03 8.37338574e+03 8.37619043e+03 8.63179688e+03 8.62697168e+03 8.51125391e+03 8.74045508e+03 8.45411719e+03 8.63469434e+03 8.99481543e+03 8.58722168e+03 8.73818750e+03 9.07359375e+03 8.85525195e+03 8.70068652e+03 8.78010156e+03 9.28795020e+03 9.54572266e+03 9.02023633e+03 8.98743750e+03 9.37641016e+03 9.44620020e+03 9.45869238e+03 9.14979004e+03 9.13546094e+03 9.53901270e+03 9.96912012e+03 9.82614062e+03 9.39488965e+03 9.59854980e+03 9.81184961e+03 9.73748828e+03 9.64435449e+03 9.66869336e+03 9.55754395e+03 9.92484082e+03 1.02980879e+04 1.01622764e+04 1.00567051e+04 9.87252637e+03 9.97066406e+03 1.04531992e+04 1.05324873e+04 1.02247705e+04 1.04180986e+04 1.04462256e+04 1.01495918e+04 1.02967715e+04 1.05295400e+04 1.04967539e+04 1.04667314e+04 1.06024590e+04 1.06226465e+04 1.09121875e+04 1.08837236e+04 1.06192773e+04 1.08204492e+04 1.10752256e+04 1.09578525e+04 1.04822490e+04 1.05514863e+04 1.12602139e+04 1.15884590e+04 1.12248057e+04 1.05893438e+04 1.06988467e+04 1.17286436e+04 1.17559482e+04 1.08819727e+04 1.09847041e+04 1.13036436e+04 1.17383779e+04 1.15473340e+04 1.10997852e+04 1.13792988e+04 1.16770918e+04 1.18255508e+04 1.15868945e+04 1.18864111e+04 1.17006533e+04 1.13509531e+04 1.22028691e+04 1.22332441e+04 1.16523623e+04 1.11527148e+04 1.15222930e+04 1.21798730e+04 1.19293838e+04 1.19179570e+04 1.18454033e+04 1.18445273e+04 1.24202783e+04 1.25692656e+04 1.20617734e+04 1.19543525e+04 1.22617979e+04 1.28095215e+04 1.24751445e+04 1.19377598e+04 1.23416367e+04 1.24211475e+04 1.22090791e+04 1.23095322e+04 1.26460527e+04 1.27224307e+04 1.23565781e+04 1.24706016e+04 1.29091387e+04 1.27542656e+04 1.21056289e+04 1.23872422e+04 1.28520322e+04 1.27194648e+04 1.26662070e+04 1.26540215e+04 1.28344600e+04 1.31783203e+04 1.32191924e+04 1.28062949e+04 1.29837520e+04 13116. 1.30538887e+04 1.28914561e+04 1.28261299e+04 1.31037070e+04 1.30997051e+04 1.30589990e+04 1.28545820e+04 1.28416611e+04 1.35281553e+04 1.35505098e+04 1.31309678e+04 1.33919062e+04 1.34211143e+04 1.26905684e+04 1.29574541e+04 1.33529023e+04 1.34762373e+04 1.34392715e+04 1.31750693e+04 1.33531533e+04 1.32019707e+04 1.34851777e+04 1.37508008e+04 1.38034102e+04 1.34322158e+04 1.32970254e+04 1.32004268e+04 1.33142002e+04 1.40035039e+04 1.39838340e+04 1.36172646e+04 1.32301582e+04 1.31970537e+04 1.36135674e+04 1.36475791e+04 1.38186836e+04 1.37391504e+04 1.34282080e+04 1.39200283e+04 1.38014180e+04 1.34914512e+04 1.36707891e+04 1.40376465e+04 1.40202266e+04 1.35415039e+04 1.34865254e+04 1.38536865e+04 1.37932383e+04 1.38338623e+04 1.39930107e+04 1.37941758e+04 1.36632578e+04 1.39843389e+04 1.40099678e+04 1.38697236e+04 1.38795059e+04 1.37075410e+04 1.38418496e+04 1.39354873e+04 1.42972217e+04</data></ring32_0>
</opencv_storage>
