<?xml version="1.0"?>
<opencv_storage>
<ring32_4 type_id="opencv-matrix">
  <rows>30</rows>
  <cols>209</cols>
  <dt>f</dt>
  <data>
    2.34963525e+03 2.29160742e+03 2.33028540e+03 2.42266724e+03 2.47034082e+03 2.56509595e+03 2.56215430e+03 2.55699438e+03 2.60472607e+03 2.62268384e+03 2.73136768e+03 2.79693750e+03 2.72466895e+03 2.77627734e+03 2.96065308e+03 2.97324829e+03 2.88689868e+03 2.94687158e+03 3.10641040e+03 3.13689258e+03 3.12004028e+03 3.09306396e+03 3.16366870e+03 3.32183569e+03 3.33550244e+03 3.32215332e+03 3.30168579e+03 3.34629736e+03 3.46509375e+03 3.51762646e+03 3.56592383e+03 3.51285596e+03 3.65432642e+03 3.77562891e+03 3.70855469e+03 3.91189453e+03 3.93124561e+03 3.80890869e+03 3.89600903e+03 3.98878174e+03 4.07127100e+03 4.06373877e+03 3.94618530e+03 3.95101904e+03 4.17995996e+03 4.49085986e+03 4.32289062e+03 4.15074023e+03 4.31460938e+03 4.50956885e+03 4.71969434e+03 4.60265723e+03 4.49037695e+03 4.79463281e+03 4.82167627e+03 4.57203418e+03 4.56867871e+03 5.00638086e+03 5.06339893e+03 4.87117822e+03 4.85396289e+03 4.76941602e+03 5.04279834e+03 5.46475537e+03 5.37423145e+03 5.28168848e+03 5.20497949e+03 5.04516260e+03 5.35271289e+03 5.75881836e+03 5.65579199e+03 5.43309229e+03 5.42025146e+03 5.65470557e+03 5.68878174e+03 5.86804785e+03 5.82390234e+03 5.72958447e+03 5.92313135e+03 5.97905127e+03 6.27255078e+03 6.21850244e+03 5.99585156e+03 6.06881934e+03 6.17189258e+03 6.40192236e+03 6.26141699e+03 6.21189551e+03 6.66553809e+03 6.63914453e+03 6.42942969e+03 6.35192480e+03 6.50561328e+03 7.03746631e+03 7.04927539e+03 6.83294434e+03 6.63020361e+03 6.69024121e+03 6.99185938e+03 7.06321289e+03 7.04892334e+03 6.84250439e+03 7.04188184e+03 7.57699658e+03 7.30268848e+03 7.55014697e+03 7.67107031e+03 7.38120020e+03 7.44553516e+03 7.49519238e+03 7.75042041e+03 7.73645654e+03 7.57760400e+03 7.60940186e+03 7.94092041e+03 8.01482129e+03 7.61614893e+03 7.69132031e+03 8.07131006e+03 8.22774219e+03 8.48367285e+03 8.24809961e+03 8.01810400e+03 8.39975000e+03 8.67578125e+03 8.57024707e+03 8.47225195e+03 8.49385254e+03 8.48507812e+03 8.48738574e+03 8.65666113e+03 8.58266309e+03 8.72999121e+03 9.03815430e+03 9.02028516e+03 9.06525488e+03 8.99660449e+03 8.93093164e+03 9.28496387e+03 9.40690723e+03 9.31652246e+03 9.13192969e+03 8.93749805e+03 9.16206445e+03 9.56162012e+03 9.93328906e+03 9.55408105e+03 9.34037402e+03 9.55745996e+03 9.71896387e+03 1.00645283e+04 1.00133906e+04 9.76209570e+03 9.73712109e+03 9.79159570e+03 9.97557617e+03 9.86414551e+03 1.01201953e+04 1.03773701e+04 1.02373525e+04 1.03705000e+04 1.02422305e+04 1.01509795e+04 1.07520244e+04 1.08080957e+04 1.03838936e+04 1.01940176e+04 1.02971621e+04 1.06153486e+04 1.06056465e+04 1.10406904e+04 1.11989473e+04 1.09047090e+04 1.05565283e+04 1.06572080e+04 1.12953701e+04 1.12706328e+04 1.10768555e+04 1.10736133e+04 1.10044307e+04 1.10078096e+04 1.10530254e+04 1.13897168e+04 1.15708164e+04 1.14476738e+04 1.15978350e+04 1.16355947e+04 1.16059629e+04 1.17576016e+04 1.17912705e+04 1.16986953e+04 1.13484766e+04 1.14468975e+04 1.21541719e+04 1.21635801e+04 1.16006240e+04 1.13187705e+04 1.18839473e+04 1.28195020e+04 1.26690879e+04 1.18048838e+04 1.16186406e+04 1.24305830e+04 1.24409941e+04 1.22134912e+04 1.27842783e+04 1.22608486e+04 1.15119170e+04 1.19969482e+04
    2.30968042e+03 2.25279248e+03 2.29084424e+03 2.38948706e+03 2.43410107e+03 2.52571997e+03 2.52148364e+03 2.51413647e+03 2.59860449e+03 2.59976416e+03 2.70364160e+03 2.77287476e+03 2.67678882e+03 2.72628442e+03 2.90068311e+03 2.91246655e+03 2.82869482e+03 2.93813940e+03 3.10337817e+03 3.10767163e+03 3.06346313e+03 3.04691479e+03 3.11519312e+03 3.28283765e+03 3.29460986e+03 3.28337720e+03 3.27584131e+03 3.32430591e+03 3.44876733e+03 3.49061060e+03 3.53317847e+03 3.48384302e+03 3.59519507e+03 3.73372437e+03 3.68502222e+03 3.83677612e+03 3.83263501e+03 3.75517993e+03 3.86349756e+03 3.91408594e+03 4.01175269e+03 4.02048438e+03 3.96290430e+03 3.94935229e+03 4.14235352e+03 4.44973389e+03 4.23628125e+03 4.01689404e+03 4.20526123e+03 4.49646680e+03 4.73556152e+03 4.56078955e+03 4.47440674e+03 4.66402930e+03 4.72381348e+03 4.52117334e+03 4.49799609e+03 4.87325830e+03 4.92036719e+03 4.78142822e+03 4.86849902e+03 4.77317920e+03 4.98384570e+03 5.35755908e+03 5.23759814e+03 5.17042041e+03 5.10730029e+03 5.04284424e+03 5.38411816e+03 5.68411865e+03 5.57996240e+03 5.38231201e+03 5.39550928e+03 5.59273779e+03 5.60666553e+03 5.78419971e+03 5.72211279e+03 5.60035791e+03 5.85393262e+03 5.90991357e+03 6.20177637e+03 6.07324561e+03 5.83553516e+03 6.10321631e+03 6.22203516e+03 6.22289893e+03 6.05102490e+03 6.14278564e+03 6.62811475e+03 6.61282666e+03 6.34975537e+03 6.25116650e+03 6.47478369e+03 6.95324268e+03 6.98502881e+03 6.74014453e+03 6.53216748e+03 6.54473779e+03 6.92914551e+03 7.00144531e+03 6.98475684e+03 6.81331299e+03 7.02867676e+03 7.35683105e+03 7.10157861e+03 7.37230029e+03 7.52887744e+03 7.29803711e+03 7.46064551e+03 7.53516650e+03 7.44358838e+03 7.46018896e+03 7.56410498e+03 7.61704004e+03 7.85074023e+03 7.87941650e+03 7.50630859e+03 7.64081543e+03 8.01336523e+03 8.09581543e+03 8.32424414e+03 8.11325049e+03 7.79126855e+03 8.21493457e+03 8.71606934e+03 8.49550684e+03 8.22501562e+03 8.27347559e+03 8.38164746e+03 8.52204199e+03 8.49022363e+03 8.43471191e+03 8.69847266e+03 8.99063086e+03 8.92656152e+03 8.84396875e+03 8.70772656e+03 8.82750195e+03 9.28867383e+03 9.33698047e+03 9.22247363e+03 9.05992969e+03 8.83098926e+03 9.06377441e+03 9.49718457e+03 9.78141406e+03 9.40459766e+03 9.16760352e+03 9.42526367e+03 9.64040332e+03 1.00173389e+04 9.81175684e+03 9.55988770e+03 9.78261328e+03 9.83802148e+03 9.83675195e+03 9.66033691e+03 9.89183887e+03 1.02881260e+04 1.02783379e+04 1.02155527e+04 9.98909961e+03 9.97277734e+03 1.06199238e+04 1.06580430e+04 1.03070742e+04 1.01375098e+04 1.01861621e+04 1.04728164e+04 1.05068486e+04 1.08927021e+04 1.10708594e+04 1.06103555e+04 1.03871494e+04 1.06955859e+04 1.11338965e+04 1.10493145e+04 1.10191670e+04 1.10913066e+04 1.09103018e+04 1.07866660e+04 1.06748555e+04 1.11998496e+04 1.14564795e+04 1.12695293e+04 1.14308975e+04 1.15281201e+04 1.15740498e+04 1.16144697e+04 1.15640176e+04 1.15057705e+04 1.12649639e+04 1.13138594e+04 1.18904219e+04 1.19605957e+04 1.15691113e+04 1.13214697e+04 1.17635410e+04 1.24273418e+04 1.23929141e+04 1.17567529e+04 1.15198535e+04 1.22406865e+04 1.25606172e+04 1.22968477e+04 1.24041250e+04 1.20313848e+04 1.14460088e+04 1.19582725e+04
    2.19636792e+03 2.13507739e+03 2.17221362e+03 2.26313379e+03 2.31184033e+03 2.39549023e+03 2.39866309e+03 2.38589111e+03 2.43790747e+03 2.45486230e+03 2.56040454e+03 2.61450806e+03 2.54267334e+03 2.59316382e+03 2.76261426e+03 2.78246411e+03 2.69593848e+03 2.75425732e+03 2.90003052e+03 2.94145801e+03 2.91411426e+03 2.88645361e+03 2.94920117e+03 3.10332446e+03 3.12209302e+03 3.10934863e+03 3.09712305e+03 3.12312378e+03 3.24798291e+03 3.28839722e+03 3.33117310e+03 3.29066016e+03 3.41468652e+03 3.53188770e+03 3.45955420e+03 3.65145020e+03 3.67194238e+03 3.56232812e+03 3.64693188e+03 3.72146460e+03 3.79330664e+03 3.78073389e+03 3.71201514e+03 3.69842773e+03 3.88867236e+03 4.19975928e+03 4.04417334e+03 3.86371582e+03 4.01980029e+03 4.19929541e+03 4.40703418e+03 4.29082568e+03 4.18987646e+03 4.46204004e+03 4.52161963e+03 4.26216699e+03 4.25718262e+03 4.65995020e+03 4.74288574e+03 4.56376514e+03 4.53702979e+03 4.46110352e+03 4.68850391e+03 5.09973682e+03 5.00433887e+03 4.89800244e+03 4.81567969e+03 4.73029736e+03 5.03935156e+03 5.37718164e+03 5.30484424e+03 5.09069482e+03 5.06193457e+03 5.29754688e+03 5.31128027e+03 5.47198340e+03 5.42184229e+03 5.35622705e+03 5.52472314e+03 5.57936621e+03 5.86403760e+03 5.78788135e+03 5.58440576e+03 5.71472266e+03 5.76864697e+03 5.96820557e+03 5.81893213e+03 5.82008691e+03 6.24917383e+03 6.20094482e+03 5.97446387e+03 5.91816357e+03 6.07640332e+03 6.56955322e+03 6.59665869e+03 6.39705713e+03 6.19463037e+03 6.22536426e+03 6.54215283e+03 6.60237646e+03 6.58316846e+03 6.38719287e+03 6.58212256e+03 7.01916455e+03 6.82118555e+03 7.01948096e+03 7.13386426e+03 6.87495410e+03 6.95641406e+03 7.02441895e+03 7.24299072e+03 7.20646240e+03 7.06093262e+03 7.10455420e+03 7.42607178e+03 7.52381201e+03 7.14822363e+03 7.18165137e+03 7.52917676e+03 7.68820459e+03 7.90960400e+03 7.69947168e+03 7.52751514e+03 7.83869727e+03 8.10078564e+03 8.02141699e+03 7.91915430e+03 7.92682178e+03 7.90620312e+03 7.93100684e+03 8.08481641e+03 8.01777246e+03 8.19776855e+03 8.48930469e+03 8.44305469e+03 8.46564551e+03 8.33564746e+03 8.37071094e+03 8.69778223e+03 8.77929395e+03 8.67142188e+03 8.51272559e+03 8.36783203e+03 8.55203320e+03 8.99456934e+03 9.31697461e+03 8.94155176e+03 8.74068652e+03 8.94684277e+03 9.10010742e+03 9.41826172e+03 9.35121191e+03 9.13855957e+03 9.10337305e+03 9.16606250e+03 9.29786914e+03 9.19650879e+03 9.42596582e+03 9.75794238e+03 9.56394434e+03 9.70049609e+03 9.56434766e+03 9.49634668e+03 1.00547549e+04 1.00458691e+04 9.71753906e+03 9.51946289e+03 9.61427637e+03 9.92176855e+03 9.92507617e+03 1.03081162e+04 1.04356357e+04 1.01586865e+04 9.87259863e+03 9.97457324e+03 1.05314150e+04 1.04858379e+04 1.03836611e+04 1.03952607e+04 1.02874092e+04 1.02736211e+04 1.02958789e+04 1.06622891e+04 1.08215059e+04 1.06619141e+04 1.08114854e+04 1.08718994e+04 1.08738438e+04 1.09658398e+04 1.09934150e+04 1.09128750e+04 1.06065537e+04 1.07141055e+04 1.13922812e+04 1.13287168e+04 1.08182559e+04 1.05753594e+04 1.11293174e+04 1.19803281e+04 1.17972500e+04 1.10134678e+04 10835. 1.16032988e+04 1.16504746e+04 1.14504160e+04 1.19224844e+04 1.14284082e+04 1.07589043e+04 1.12054014e+04
    2.14650171e+03 2.09076196e+03 2.12371289e+03 2.21654370e+03 2.25931055e+03 2.35011328e+03 2.34198926e+03 2.33573804e+03 2.41046411e+03 2.41364917e+03 2.51536401e+03 2.57305322e+03 2.48255713e+03 2.52915308e+03 2.69675049e+03 2.69827588e+03 2.62771875e+03 2.72933472e+03 2.88508740e+03 2.88544019e+03 2.84568384e+03 2.82819067e+03 2.89415234e+03 3.04582422e+03 3.05045776e+03 3.04902100e+03 3.04256934e+03 3.07960034e+03 3.21576025e+03 3.24223413e+03 3.27134619e+03 3.23258545e+03 3.33500513e+03 3.45852222e+03 3.41515796e+03 3.56533545e+03 3.54807007e+03 3.49092725e+03 3.58613867e+03 3.63909229e+03 3.71916577e+03 3.71954248e+03 3.68994629e+03 3.67676636e+03 3.83939136e+03 4.13908203e+03 3.94552173e+03 3.72017749e+03 3.90212061e+03 4.17094043e+03 4.39312500e+03 4.23853906e+03 4.13607812e+03 4.34711523e+03 4.38543066e+03 4.19273340e+03 4.15400928e+03 4.49881982e+03 4.57363574e+03 4.42269727e+03 4.53133740e+03 4.42252686e+03 4.60922412e+03 4.97432471e+03 4.86693213e+03 4.80674023e+03 4.72052930e+03 4.67757764e+03 4.98595068e+03 5.25766650e+03 5.18959326e+03 4.97142285e+03 4.99776367e+03 5.18266406e+03 5.21290576e+03 5.38744629e+03 5.28567139e+03 5.17935010e+03 5.44978467e+03 5.50287646e+03 5.76743799e+03 5.60099170e+03 5.41410938e+03 5.66088086e+03 5.77822363e+03 5.76625391e+03 5.63844336e+03 5.70204053e+03 6.15492725e+03 6.12802881e+03 5.87892139e+03 5.81121973e+03 6.01303955e+03 6.43674512e+03 6.45944238e+03 6.24626270e+03 6.03394824e+03 6.09027832e+03 6.40161523e+03 6.53378320e+03 6.53398926e+03 6.29131104e+03 6.49703857e+03 6.85373438e+03 6.58122461e+03 6.85666016e+03 6.97710938e+03 6.77158301e+03 6.94768652e+03 6.99955176e+03 6.95281250e+03 6.92083252e+03 7.01875293e+03 7.06980029e+03 7.29852441e+03 7.31574854e+03 6.97217627e+03 7.02610791e+03 7.33339600e+03 7.52675928e+03 7.80975146e+03 7.55604297e+03 7.22082959e+03 7.61174414e+03 8.06931006e+03 7.88781445e+03 7.66114844e+03 7.71593652e+03 7.87488379e+03 7.86989648e+03 7.81687646e+03 7.90531445e+03 8.06316748e+03 8.36060156e+03 8.30167676e+03 8.20276758e+03 8.08981104e+03 8.16618604e+03 8.55597852e+03 8.69579492e+03 8.52713379e+03 8.40868555e+03 8.18545117e+03 8.35283984e+03 8.79063184e+03 9.08049707e+03 8.76297168e+03 8.51413477e+03 8.74128418e+03 8.96277734e+03 9.28067871e+03 9.12437695e+03 8.86764941e+03 9.05835449e+03 9.14586230e+03 9.11463477e+03 8.96646484e+03 9.21500684e+03 9.53874121e+03 9.55717578e+03 9.43302148e+03 9.21380762e+03 9.28677637e+03 9.85375391e+03 9.85646777e+03 9.60422656e+03 9.41312793e+03 9.45146680e+03 9.73223633e+03 9.73077148e+03 1.01252051e+04 1.02408457e+04 9.84053125e+03 9.61563867e+03 9.89340430e+03 1.03957324e+04 1.02509697e+04 1.02104580e+04 1.02939766e+04 1.01259717e+04 9.99797559e+03 9.90164746e+03 1.03978809e+04 1.06423086e+04 1.04775352e+04 1.06278408e+04 1.07318301e+04 1.07381738e+04 1.07624453e+04 1.07243369e+04 1.06562031e+04 1.04433760e+04 1.05222773e+04 1.10413242e+04 1.10959375e+04 1.07211074e+04 1.05072061e+04 1.09066973e+04 1.15374238e+04 1.14674053e+04 1.08878799e+04 10688. 1.13555869e+04 1.16783281e+04 1.13798770e+04 1.15274580e+04 1.11370723e+04 1.06084980e+04 1.10986514e+04
    2.14227808e+03 2.07888525e+03 2.10991797e+03 2.20658716e+03 2.24875928e+03 2.33391357e+03 2.32935693e+03 2.31904932e+03 2.36399683e+03 2.38763477e+03 2.49193140e+03 2.53944458e+03 2.47190308e+03 2.51825659e+03 2.68567725e+03 2.70632031e+03 2.62276782e+03 2.67661987e+03 2.81951611e+03 2.85544409e+03 2.83127661e+03 2.80959351e+03 2.87135791e+03 3.02414307e+03 3.03919824e+03 3.02042090e+03 3.01493066e+03 3.03900708e+03 3.15516699e+03 3.20832373e+03 3.23826074e+03 3.19613696e+03 3.32458862e+03 3.43614331e+03 3.36867261e+03 3.55233325e+03 3.56842163e+03 3.45923633e+03 3.54735864e+03 3.60533618e+03 3.68214478e+03 3.68254907e+03 3.61955103e+03 3.58063062e+03 3.77412744e+03 4.08786621e+03 3.92672485e+03 3.76932178e+03 3.90131958e+03 4.09581470e+03 4.27712598e+03 4.16733496e+03 4.07073096e+03 4.34101416e+03 4.39093311e+03 4.13459570e+03 4.14802783e+03 4.51905273e+03 4.59041211e+03 4.42595654e+03 4.41546436e+03 4.32665332e+03 4.56988330e+03 4.96809229e+03 4.88906738e+03 4.78442529e+03 4.73152686e+03 4.56339648e+03 4.86126807e+03 5.24489990e+03 5.13845898e+03 4.92966846e+03 4.94337305e+03 5.10735645e+03 5.17992285e+03 5.31925684e+03 5.28220703e+03 5.16045996e+03 5.39441455e+03 5.47160254e+03 5.67728809e+03 5.60659277e+03 5.44766943e+03 5.53806738e+03 5.58804639e+03 5.81762744e+03 5.68275879e+03 5.66895557e+03 6.04303369e+03 6.05528027e+03 5.79546289e+03 5.74586133e+03 5.93766943e+03 6.39028857e+03 6.41703857e+03 6.19928271e+03 6.01732031e+03 6.04185303e+03 6.34819482e+03 6.43030811e+03 6.43915137e+03 6.19328467e+03 6.42397070e+03 6.84976270e+03 6.56945898e+03 6.84205713e+03 6.96663477e+03 6.67395068e+03 6.72872363e+03 6.83305371e+03 7.04529297e+03 7.03858203e+03 6.84531543e+03 6.92910742e+03 7.21974219e+03 7.28601709e+03 6.97234814e+03 6.97020459e+03 7.23283057e+03 7.49229102e+03 7.72965234e+03 7.49286963e+03 7.23895068e+03 7.63258252e+03 7.87800195e+03 7.81335352e+03 7.70071729e+03 7.70341211e+03 7867. 7.66284717e+03 7.70295752e+03 7.90746240e+03 7.96485400e+03 8.19986914e+03 8.16704932e+03 8.25947754e+03 8.18997412e+03 8.08108936e+03 8.46632227e+03 8.54372754e+03 8.46236133e+03 8.28319434e+03 8.10421826e+03 8.31471387e+03 8.70183691e+03 8.99516406e+03 8.67905078e+03 8.46652441e+03 8.68145898e+03 8.80079395e+03 9.11531250e+03 9.08050684e+03 8.87132031e+03 8.86199609e+03 8.89458398e+03 9.04292480e+03 8.98714648e+03 9.17482617e+03 9.43711621e+03 9.33055664e+03 9.42925488e+03 9.24909668e+03 9.23809180e+03 9.77507812e+03 9.80555957e+03 9.47790918e+03 9.27480664e+03 9.33241797e+03 9.64545898e+03 9.66030664e+03 9.98970410e+03 1.01547646e+04 9.87539551e+03 9.57604590e+03 9.65020801e+03 1.02782178e+04 1.01993652e+04 1.00541240e+04 1.00859170e+04 9.98995605e+03 1.00023311e+04 1.00261064e+04 1.03384502e+04 1.04957002e+04 1.03674590e+04 1.05362920e+04 1.05828848e+04 1.05532783e+04 1.06616406e+04 1.06938613e+04 1.06215342e+04 1.03062715e+04 1.03957988e+04 1.10423916e+04 1.10416660e+04 1.05132070e+04 1.02660400e+04 1.07890469e+04 1.16283682e+04 1.14707705e+04 1.07113984e+04 1.05316553e+04 1.12966465e+04 1.12902900e+04 1.10798320e+04 1.15809297e+04 1.11059512e+04 1.04556406e+04 1.08755908e+04
    2.09185742e+03 2.05260059e+03 2.10024854e+03 2.20267505e+03 2.23028418e+03 2.32035962e+03 2.32293481e+03 2.30043042e+03 2.36524121e+03 2.38574976e+03 2.46132422e+03 2.51401807e+03 2.46680444e+03 2.50738477e+03 2.66710791e+03 2.66329028e+03 2.56897314e+03 2.69065552e+03 2.86170264e+03 2.84411450e+03 2.79765649e+03 2.79115796e+03 2.85287598e+03 3.01617578e+03 3.03678735e+03 3.01325732e+03 2.99105322e+03 3.02874976e+03 3.15288721e+03 3.18775024e+03 3.23972632e+03 3.21120654e+03 3.30234668e+03 3.45153662e+03 3.39096533e+03 3.47823364e+03 3.52273975e+03 3.47657495e+03 3.53549438e+03 3.58462109e+03 3.66228979e+03 3.68965137e+03 3.67287207e+03 3.63065283e+03 3.75207715e+03 4.02418652e+03 3.89840161e+03 3.76045630e+03 3.90092896e+03 4.07425513e+03 4.22801270e+03 4.18647900e+03 4.09082251e+03 4.26641992e+03 4.30235596e+03 4.13311572e+03 4.15800732e+03 4.45358887e+03 4.50886865e+03 4.42858105e+03 4.40316504e+03 4.27107373e+03 4.54664697e+03 4.97449609e+03 4.84087500e+03 4.73788330e+03 4.63555957e+03 4.61681104e+03 4.93560840e+03 5.18363477e+03 5.05139160e+03 4.88391211e+03 4.86291357e+03 5.04402734e+03 5.17791699e+03 5.36520166e+03 5.31373486e+03 5.19885498e+03 5.36410205e+03 5.43806055e+03 5.56984424e+03 5.53432715e+03 5.41220947e+03 5.54248242e+03 5.61854639e+03 5.69609863e+03 5.54850342e+03 5.62861035e+03 6.05966602e+03 6.02415918e+03 5.78474512e+03 5.73488770e+03 5.89463965e+03 6.35524365e+03 6.41535693e+03 6.13108008e+03 5.97857812e+03 6.01186719e+03 6.28904932e+03 6.41708545e+03 6.39970410e+03 6.19220508e+03 6.39108154e+03 6.81201367e+03 6.58844629e+03 6.77059863e+03 6.82870361e+03 6.69392090e+03 6.82785449e+03 6.86150098e+03 6.77671436e+03 6.81220801e+03 6.98811719e+03 7.05574707e+03 7.12847217e+03 7.21049268e+03 6.94844873e+03 6.91098340e+03 7.24086182e+03 7.37723877e+03 7.64130859e+03 7.48291504e+03 7.20852148e+03 7.60960693e+03 7.86257568e+03 7.69675049e+03 7.53074561e+03 7.52833740e+03 7.96831934e+03 7.66127002e+03 7.46982373e+03 7.71822070e+03 7.90322412e+03 8.32954688e+03 8.16759521e+03 8.07396777e+03 8.03710693e+03 8.00742041e+03 8.44303027e+03 8.50273340e+03 8.35886523e+03 8.24689551e+03 8.15712061e+03 8.34335742e+03 8.59754590e+03 8.84644043e+03 8.67324219e+03 8.43870117e+03 8.67287012e+03 8.77580664e+03 9.01030469e+03 8.98285840e+03 8.81649609e+03 8.93347852e+03 9.06233691e+03 8.97696680e+03 8.81811621e+03 9.11748242e+03 9.45184668e+03 9.37910352e+03 9.28933496e+03 9.11771289e+03 9.21323730e+03 9.71238379e+03 9.70525586e+03 9.49952344e+03 9.25375391e+03 9.31570312e+03 9.57883105e+03 9.62841211e+03 9.90751367e+03 1.00460107e+04 9.72399316e+03 9.53831836e+03 9.68570508e+03 1.02267363e+04 1.00750186e+04 9.91826172e+03 1.01913672e+04 1.01346133e+04 9.91341406e+03 9.88776270e+03 1.03286895e+04 1.04123457e+04 1.02397188e+04 1.05378994e+04 1.06282168e+04 1.04603252e+04 1.04997744e+04 1.05930107e+04 1.05437041e+04 1.03213203e+04 1.03992500e+04 1.09416475e+04 1.09691143e+04 1.04969307e+04 1.02747393e+04 1.07567383e+04 1.14870459e+04 1.13550811e+04 1.07131602e+04 1.05413682e+04 1.12149209e+04 1.14187773e+04 1.11176846e+04 1.13026562e+04 1.10403945e+04 1.06068740e+04 1.10304355e+04
    2.08487866e+03 2.04996338e+03 2.09730420e+03 2.19391235e+03 2.22657300e+03 2.32007007e+03 2.32537354e+03 2.29836938e+03 2.36257324e+03 2.38255737e+03 2.45447559e+03 2.50796851e+03 2.45822607e+03 2.50073193e+03 2.66275854e+03 2.65782983e+03 2.57269849e+03 2.68331885e+03 2.85821509e+03 2.83527344e+03 2.79016064e+03 2.79014697e+03 2.85243872e+03 3.01323877e+03 3.02553882e+03 3.00957764e+03 2.98496851e+03 3.02970752e+03 3.14000684e+03 3.16579077e+03 3.22702002e+03 3.20151782e+03 3.29252612e+03 3.43387622e+03 3.38486206e+03 3.47455591e+03 3.50310889e+03 3.46169287e+03 3.52785864e+03 3.59213965e+03 3.65267188e+03 3.68943823e+03 3.66026050e+03 3.60576392e+03 3.73146729e+03 4.00031592e+03 3.87804736e+03 3.74092725e+03 3.90035889e+03 4.05983691e+03 4.24544971e+03 4.15449512e+03 4.09159888e+03 4.25909326e+03 4.29756885e+03 4.13345361e+03 4.12234619e+03 4.46343066e+03 4.52260156e+03 4.43342822e+03 4.38657666e+03 4.26185254e+03 4.53575830e+03 4.92179150e+03 4.82544775e+03 4.71525391e+03 4.62100098e+03 4.64040527e+03 4.96701416e+03 5.16895947e+03 5.02771973e+03 4.84525879e+03 4.83707715e+03 5.03771582e+03 5.14485156e+03 5.33957666e+03 5.28456299e+03 5.19870605e+03 5.34653223e+03 5.40450781e+03 5.58257275e+03 5.54547852e+03 5.39868945e+03 5.49757031e+03 5.60313232e+03 5.67006787e+03 5.55342236e+03 5.61076855e+03 6.08332617e+03 6.01032129e+03 5.79672949e+03 5.71158252e+03 5.88321582e+03 6.32164600e+03 6.36414258e+03 6.11784326e+03 5.96414111e+03 5.98361865e+03 6.26338770e+03 6.38387061e+03 6.33803271e+03 6.17540430e+03 6.38264990e+03 6.79534912e+03 6.56852002e+03 6.76578369e+03 6.85687744e+03 6.72338965e+03 6.79138867e+03 6.83048047e+03 6.77821436e+03 6.76874512e+03 6.97156543e+03 7.05153418e+03 7.10696875e+03 7.15413135e+03 6.87676904e+03 6.96336768e+03 7.28674414e+03 7.33775000e+03 7.57950732e+03 7.46218066e+03 7.18309131e+03 7.61502393e+03 7.88518115e+03 7.69800098e+03 7.53164893e+03 7.56835107e+03 7.79494141e+03 7.62967090e+03 7.61621680e+03 7.70464355e+03 7.86454150e+03 8.28833398e+03 8.16483984e+03 8.07872803e+03 7.96336865e+03 8.03452148e+03 8.44849902e+03 8.50114844e+03 8.29915723e+03 8.22836035e+03 8.10455029e+03 8.35417480e+03 8.52949609e+03 8.84587891e+03 8.64043359e+03 8.46990625e+03 8.65532715e+03 8.72397656e+03 9.02258496e+03 8.92523926e+03 8.78623242e+03 8.95426172e+03 9.03882812e+03 9.00791406e+03 8.82177637e+03 9.08234277e+03 9.40071289e+03 9.29465332e+03 9.25964746e+03 9.09288477e+03 9.19176074e+03 9.71006152e+03 9.69053027e+03 9.44242773e+03 9.26543262e+03 9.28918945e+03 9.60797559e+03 9.59660254e+03 9.87838281e+03 9.97590527e+03 9.72895898e+03 9.53668164e+03 9.67338477e+03 1.01880127e+04 1.00626738e+04 9.91103711e+03 1.01006826e+04 1.00728926e+04 9.87603027e+03 9.85250098e+03 1.02719229e+04 1.03739766e+04 1.02141475e+04 1.05098398e+04 1.06067715e+04 1.04402500e+04 1.04910947e+04 1.05601025e+04 1.05409609e+04 1.02869629e+04 1.03738203e+04 1.08937012e+04 1.09126396e+04 1.04466133e+04 1.02300840e+04 1.07056787e+04 1.14385352e+04 1.13459824e+04 1.06972803e+04 1.05169502e+04 1.11717061e+04 1.13590703e+04 1.10609102e+04 1.12739766e+04 1.09935234e+04 1.05809717e+04 1.09959092e+04
    2.08432031e+03 2.04209534e+03 2.09081079e+03 2.18593481e+03 2.21872534e+03 2.31067041e+03 2.31580054e+03 2.29404053e+03 2.35424316e+03 2.37328271e+03 2.44714624e+03 2.50083081e+03 2.45566821e+03 2.49013647e+03 2.65409937e+03 2.64740527e+03 2.55378638e+03 2.67322852e+03 2.83873853e+03 2.82347754e+03 2.78732056e+03 2.77307959e+03 2.83565698e+03 2.99840942e+03 3.00721167e+03 2.99705957e+03 2.96885791e+03 3.01442700e+03 3.12535107e+03 3.16241577e+03 3.21988916e+03 3.18440918e+03 3.28188330e+03 3.43521704e+03 3.37584619e+03 3.46890137e+03 3.50330884e+03 3.45900684e+03 3.50950781e+03 3.57333691e+03 3.63789282e+03 3.65414185e+03 3.63984106e+03 3.63260913e+03 3.76429395e+03 3.99789233e+03 3.87061548e+03 3.73757886e+03 3.89948608e+03 4.07882935e+03 4.24100049e+03 4.15787549e+03 4.07714673e+03 4.26026270e+03 4.30165527e+03 4.13252832e+03 4.13449414e+03 4.46708984e+03 4.51114746e+03 4.44067090e+03 4.37575049e+03 4.26517383e+03 4.53569385e+03 4.91306006e+03 4.81850977e+03 4.71928809e+03 4.62165088e+03 4.62835010e+03 4.95835107e+03 5.14300439e+03 5.03996045e+03 4.85740381e+03 4.85185645e+03 5.05180225e+03 5.12945508e+03 5.30899756e+03 5.26199414e+03 5.19148828e+03 5.35133984e+03 5.38515820e+03 5.59310840e+03 5.52383594e+03 5.40701611e+03 5.49785254e+03 5.58303662e+03 5.67085010e+03 5.54443213e+03 5.60745996e+03 6.04723926e+03 6.01993652e+03 5.76877881e+03 5.70152979e+03 5.85627197e+03 6.31048682e+03 6.36669824e+03 6.10591650e+03 5.97243994e+03 5.96743115e+03 6.26314160e+03 6.33537256e+03 6.34691406e+03 6.17506055e+03 6.40070312e+03 6.79718506e+03 6.58486084e+03 6.72528906e+03 6.80646143e+03 6.66987402e+03 6.78412158e+03 6.81104590e+03 6.75885840e+03 6.76873291e+03 6.94406641e+03 7.03232764e+03 7.15227783e+03 7.15521777e+03 6.86888770e+03 6.91633691e+03 7.26982666e+03 7.31754199e+03 7.53565039e+03 7.42285986e+03 7.15440918e+03 7.56827002e+03 7.83027588e+03 7.69422900e+03 7.47444873e+03 7.58190820e+03 7.78045508e+03 7.66508447e+03 7.63362012e+03 7.63682812e+03 7.86768652e+03 8.28678223e+03 8.12979932e+03 8.04536426e+03 7.95118701e+03 7.98722998e+03 8.40996582e+03 8.46610645e+03 8.24732715e+03 8.19908887e+03 8.07878027e+03 8.31225781e+03 8.53449707e+03 8.78683105e+03 8.59404492e+03 8.42569727e+03 8.60417383e+03 8.71667188e+03 8.94670312e+03 8.92201465e+03 8.73091113e+03 8.93532812e+03 9.00059473e+03 8.96217090e+03 8.81447852e+03 9.00361328e+03 9.43139551e+03 9.30055664e+03 9.22886719e+03 9.05085059e+03 9.19521289e+03 9.67940820e+03 9.64858008e+03 9.41904883e+03 9.20185840e+03 9.27103906e+03 9.53554492e+03 9.57747754e+03 9.87753516e+03 9.96096582e+03 9.70042773e+03 9.50146875e+03 9.69160059e+03 1.01666084e+04 1.00259766e+04 9.83928809e+03 1.01301494e+04 1.00352109e+04 9.85710059e+03 9.83714648e+03 1.02603916e+04 1.03206475e+04 1.01539189e+04 1.05032119e+04 1.05799902e+04 1.04006846e+04 1.04392793e+04 1.05087441e+04 1.05072295e+04 1.02698252e+04 1.03224375e+04 1.08623164e+04 1.08901045e+04 1.04256260e+04 1.02030850e+04 1.06759619e+04 1.14142988e+04 1.13007930e+04 1.06620635e+04 1.04865762e+04 1.11906699e+04 1.13296846e+04 1.10593994e+04 1.12512588e+04 1.09804980e+04 1.05576729e+04 1.09723193e+04
    2.10722339e+03 2.06555493e+03 2.09475146e+03 2.16891479e+03 2.21062549e+03 2.30023389e+03 2.31076416e+03 2.29497046e+03 2.32973193e+03 2.35687500e+03 2.47038550e+03 2.51425098e+03 2.44408643e+03 2.48126050e+03 2.63778076e+03 2.66517847e+03 2.57236108e+03 2.65693335e+03 2.79633203e+03 2.82107275e+03 2.82106665e+03 2.76966431e+03 2.79853027e+03 2.99187769e+03 3.02530493e+03 2.99403931e+03 2.96897314e+03 2.99314380e+03 3.12168994e+03 3.17251416e+03 3.19622656e+03 3.14572095e+03 3.26640845e+03 3.44255078e+03 3.37797827e+03 3.49188037e+03 3.49953418e+03 3.44857056e+03 3.52905835e+03 3.57410498e+03 3.64352686e+03 3.63385425e+03 3.60288745e+03 3.61112402e+03 3.75060718e+03 4.00170020e+03 3.85892358e+03 3.70863599e+03 3.84996606e+03 4.06179956e+03 4.27974365e+03 4.18905322e+03 4.08339282e+03 4.24714746e+03 4.25834424e+03 4.14029541e+03 4.15588867e+03 4.41868066e+03 4.48294531e+03 4.38381738e+03 4.37025977e+03 4.31789453e+03 4.52420020e+03 4.87356055e+03 4.80088477e+03 4.71141895e+03 4.63996436e+03 4.58973340e+03 4.92077686e+03 5.13553857e+03 5.01876758e+03 4.91303516e+03 4.94413867e+03 5.03236328e+03 5.06290088e+03 5.29030859e+03 5.23029297e+03 5.11926562e+03 5.27930029e+03 5.35290967e+03 5.61630859e+03 5.57994043e+03 5.38269385e+03 5.52052979e+03 5.55622803e+03 5.66539404e+03 5.57236084e+03 5.54465723e+03 5.93675537e+03 5.91912061e+03 5.85181348e+03 5.76809033e+03 5.81329541e+03 6.24426904e+03 6.35450195e+03 6.16180127e+03 6.02601318e+03 5.99243213e+03 6.21934180e+03 6.26434424e+03 6.31518701e+03 6.20746240e+03 6.33572266e+03 6.63572314e+03 6.50723877e+03 6.73481445e+03 6.81547461e+03 6.63650537e+03 6.72753174e+03 6.79967480e+03 6.81236621e+03 6.84006348e+03 6.91782129e+03 6.99610840e+03 7.09492773e+03 7.11652930e+03 6.85591699e+03 6.98170312e+03 7.25793701e+03 7.34740674e+03 7.54329785e+03 7.41770215e+03 7.23453857e+03 7.50827783e+03 7.71820312e+03 7.64448584e+03 7.59261279e+03 7.74070654e+03 7.54259668e+03 7.44685059e+03 7.79731836e+03 7.76062939e+03 7.85143262e+03 8.14557080e+03 8.13232373e+03 8.08636426e+03 7.95753516e+03 7.99392236e+03 8.31867090e+03 8.37911523e+03 8.35587402e+03 8.23270801e+03 8.07860840e+03 8.26494336e+03 8.56658203e+03 8.81118066e+03 8.60270898e+03 8.43974023e+03 8.54516895e+03 8.65717578e+03 9.08726953e+03 8.93719336e+03 8.71744043e+03 8.73554785e+03 8.81254883e+03 9.04318945e+03 8.86145801e+03 8.91978906e+03 9.37465332e+03 9.32085352e+03 9.20639551e+03 9.01023535e+03 9.06629688e+03 9.65688672e+03 9.69322852e+03 9.35821387e+03 9.17426660e+03 9.25982910e+03 9.51490039e+03 9.61989453e+03 9.90867871e+03 9.98268359e+03 9.70745605e+03 9.45653711e+03 9.68891602e+03 1.01753906e+04 1.01005664e+04 9.96846387e+03 1.00452578e+04 9.90968359e+03 9.85308984e+03 9.87956934e+03 1.01658447e+04 1.01780156e+04 1.01304160e+04 1.05599287e+04 1.05654258e+04 1.03628955e+04 1.04072949e+04 1.04595244e+04 1.04966748e+04 1.02152188e+04 1.02313301e+04 1.08672051e+04 1.08660977e+04 1.03605869e+04 1.02724424e+04 1.07923223e+04 1.12970820e+04 1.11372822e+04 1.07290332e+04 1.05469941e+04 1.10802520e+04 1.12573936e+04 1.10693174e+04 1.12347773e+04 1.09014521e+04 1.04112373e+04 1.09277344e+04
    2.08607446e+03 2.06477686e+03 2.11137451e+03 2.19272119e+03 2.22037500e+03 2.31357935e+03 2.34199561e+03 2.30665088e+03 2.33254614e+03 2.36592749e+03 2.45826196e+03 2.50076855e+03 2.45885376e+03 2.49989478e+03 2.65967603e+03 2.67710693e+03 2.57247144e+03 2.66734595e+03 2.82719263e+03 2.82748535e+03 2.81936548e+03 2.77476953e+03 2.81210400e+03 3.00989307e+03 3.05016504e+03 3.00868091e+03 2.96587622e+03 2.98946216e+03 3.10605981e+03 3.16234546e+03 3.21010107e+03 3.16183569e+03 3.28010791e+03 3.46858081e+03 3.39992896e+03 3.45003418e+03 3.50622656e+03 3.48069263e+03 3.51615527e+03 3.56320557e+03 3.64599316e+03 3.63818237e+03 3.62617285e+03 3.62146655e+03 3.70897998e+03 3.93157520e+03 3.84434180e+03 3.77326807e+03 3.91022534e+03 4.01611670e+03 4.19601514e+03 4.16412500e+03 4.09125806e+03 4.21116064e+03 4.25007568e+03 4.13520996e+03 4.20833789e+03 4.45538623e+03 4.48472070e+03 4.43333740e+03 4.32306445e+03 4.24077441e+03 4.52019775e+03 4.93080322e+03 4.83149854e+03 4.68693408e+03 4.62763037e+03 4.57366797e+03 4.92623535e+03 5.07238672e+03 4.95583203e+03 4.84841162e+03 4.87122363e+03 4.99835059e+03 5.07640234e+03 5.29612695e+03 5.30751172e+03 5.19563574e+03 5.26522168e+03 5.30377832e+03 5.56441748e+03 5.59605518e+03 5.47650928e+03 5.47717285e+03 5.46279053e+03 5.60505859e+03 5.54692920e+03 5.58425537e+03 5.93908252e+03 5.93863428e+03 5.85461865e+03 5.76838135e+03 5.75553418e+03 6.21581787e+03 6.35876611e+03 6.14509863e+03 6.04469092e+03 6.03281689e+03 6.20311377e+03 6.27495850e+03 6.30227783e+03 6.19955127e+03 6.35589355e+03 6.70666260e+03 6.61898779e+03 6.67869141e+03 6.76685059e+03 6.65748633e+03 6.69304590e+03 6.73280713e+03 6.76995166e+03 6.82216260e+03 6.96890381e+03 7.04716162e+03 7.03431396e+03 7.13698926e+03 6.95244385e+03 6.87558447e+03 7.14911719e+03 7.30424121e+03 7.51877686e+03 7.47463232e+03 7.33657812e+03 7.58670654e+03 7.65915771e+03 7.56700732e+03 7.55151172e+03 7.69500244e+03 7.64201660e+03 7.50151855e+03 7.73181836e+03 7.67536475e+03 7.77679834e+03 8.19840527e+03 8.15423291e+03 8.08109424e+03 8.01891064e+03 7.95772363e+03 8.35252344e+03 8.36704590e+03 8.26115625e+03 8.19711035e+03 8.15840186e+03 8.33758301e+03 8.47690820e+03 8.69314453e+03 8.65772168e+03 8.47144531e+03 8.57289941e+03 8.62978125e+03 8.95705469e+03 8.94490918e+03 8.75980273e+03 8.77787402e+03 8.85869141e+03 8.99457031e+03 8.83239062e+03 8.99460742e+03 9.49812012e+03 9.24078516e+03 9.12750098e+03 9.06920410e+03 9.09430664e+03 9.63981152e+03 9.67568066e+03 9.34492969e+03 9.22598926e+03 9.25790527e+03 9.55798340e+03 9.63437500e+03 9.89837500e+03 9.87768750e+03 9.75371289e+03 9.60484863e+03 9.65727832e+03 1.01632246e+04 1.00442539e+04 9.82385645e+03 1.00889307e+04 1.00281318e+04 9.88868359e+03 9.98395508e+03 1.02551631e+04 1.00729072e+04 1.00467461e+04 1.05787295e+04 1.05782949e+04 1.03179365e+04 1.03447363e+04 1.04427373e+04 1.05499268e+04 1.02299326e+04 1.02362012e+04 1.09158975e+04 1.08678828e+04 1.02889473e+04 1.01703750e+04 1.08172490e+04 1.14137070e+04 1.11709717e+04 1.06763525e+04 1.05554336e+04 1.11229893e+04 1.11275439e+04 1.09335273e+04 1.11890264e+04 1.09486357e+04 1.05585801e+04 1.09807412e+04
    2.07362842e+03 2.06022876e+03 2.09987012e+03 2.18749292e+03 2.20750244e+03 2.31192993e+03 2.32939233e+03 2.30098438e+03 2.35549414e+03 2.38038281e+03 2.46000464e+03 2.50847461e+03 2.45276489e+03 2.48603687e+03 2.64814404e+03 2.65016406e+03 2.54919800e+03 2.69071924e+03 2.85599023e+03 2.82029443e+03 2.80287354e+03 2.76362598e+03 2.79540698e+03 2.99710620e+03 3.03105322e+03 3.00208105e+03 2.97198169e+03 2.99515308e+03 3.11005737e+03 3.15946484e+03 3.20887598e+03 3.16095752e+03 3.25066016e+03 3.45978345e+03 3.41923584e+03 3.42080029e+03 3.44710645e+03 3.46728516e+03 3.51510815e+03 3.55877100e+03 3.62990771e+03 3.65273145e+03 3.69275488e+03 3.65821655e+03 3.74379688e+03 3.95545801e+03 3.81722803e+03 3711. 3.86821509e+03 4.06666626e+03 4.24401318e+03 4.19411230e+03 4.11995410e+03 4.17677344e+03 4.20541016e+03 4.15514648e+03 4.17957910e+03 4.42021680e+03 4.44209326e+03 4.38439014e+03 4.39210693e+03 4.29848877e+03 4.53861816e+03 4.87052979e+03 4.77440967e+03 4.68726904e+03 4.61343506e+03 4.65183496e+03 5.00746680e+03 5.10502539e+03 4.98003516e+03 4.88319922e+03 4.89782568e+03 4.97927197e+03 5.09070410e+03 5.33311328e+03 5.26581348e+03 5.16402734e+03 5.28733740e+03 5.34496094e+03 5.54343213e+03 5.52112549e+03 5.43786816e+03 5.55287305e+03 5.59933594e+03 5.55809814e+03 5.46697510e+03 5.54935254e+03 5.93922314e+03 5.98107324e+03 5.84537061e+03 5.77848535e+03 5.78980176e+03 6.23770459e+03 6.31989648e+03 6.08991553e+03 6.00071045e+03 5.99677051e+03 6.18316211e+03 6.27663623e+03 6.34764893e+03 6.24336572e+03 6.36842139e+03 6.66801123e+03 6.52741064e+03 6.67799268e+03 6.75192188e+03 6.70771045e+03 6.76987842e+03 6.82189307e+03 6.65324316e+03 6.68659424e+03 7.06698828e+03 7.14004834e+03 7.10027637e+03 7.09498340e+03 6.89135840e+03 6.90652490e+03 7.21922559e+03 7.35050781e+03 7.47042529e+03 7.43996533e+03 7.26080176e+03 7.52237061e+03 7.74320020e+03 7.65106055e+03 7.48261230e+03 7.63481641e+03 7.52136621e+03 7.54780518e+03 7.89723145e+03 7.65687891e+03 7.85460742e+03 8.30143262e+03 8.18222119e+03 8.01897803e+03 7.91381445e+03 7.97006055e+03 8.38322363e+03 8.36583203e+03 8.27147754e+03 8.19722949e+03 8.13580273e+03 8.39969922e+03 8.48934277e+03 8.67682129e+03 8.57408008e+03 8.49823438e+03 8.55774316e+03 8.63261816e+03 8.97072363e+03 8.84508203e+03 8.64550977e+03 8.91034473e+03 9.00007031e+03 8.96923047e+03 8.76855078e+03 8.87343750e+03 9.46231152e+03 9.40607129e+03 9.10870215e+03 8.96152441e+03 9.08353613e+03 9.58380371e+03 9.66091211e+03 9.36960742e+03 9.22848730e+03 9.27573730e+03 9.53560645e+03 9.62724219e+03 9.88300293e+03 9.87629980e+03 9.65097949e+03 9.51230371e+03 9.73174219e+03 1.01817656e+04 1.00098496e+04 9.85733105e+03 1.01842842e+04 1.01022344e+04 9.79521777e+03 9.83373926e+03 1.01893008e+04 1.01182861e+04 1.00308955e+04 1.05929717e+04 1.06386104e+04 1.03547148e+04 1.03274287e+04 1.03969639e+04 1.04811191e+04 1.02789453e+04 1.02505869e+04 1.07548838e+04 1.08371641e+04 1.03655303e+04 1.02903994e+04 1.08167686e+04 1.12018691e+04 1.10742441e+04 1.07688379e+04 1.05907754e+04 1.10628115e+04 1.13850918e+04 1.10922725e+04 1.10258564e+04 1.08765186e+04 1.06247373e+04 1.11082803e+04
    2.08140112e+03 2.04354236e+03 2.08969775e+03 2.18390430e+03 2.21418408e+03 2.30488428e+03 2.31036597e+03 2.28802466e+03 2.34731616e+03 2.37084448e+03 2.44265674e+03 2.49572583e+03 2.44554663e+03 2.48266113e+03 2.64458057e+03 2.64228955e+03 2.54720972e+03 2.66292871e+03 2.83510449e+03 2.82030054e+03 2.76826367e+03 2.76561523e+03 2.83229785e+03 2.98318042e+03 3.00489404e+03 2.98912109e+03 2.96801855e+03 3.00169604e+03 3.11355029e+03 3.15183130e+03 3.21266943e+03 3.18010791e+03 3.27990723e+03 3.41286328e+03 3.36968555e+03 3.44598657e+03 3.48038013e+03 3.44216431e+03 3.50043652e+03 3.55623267e+03 3.62362964e+03 3.65213892e+03 3.65942554e+03 3.60675146e+03 3.73063379e+03 4.01863672e+03 3.86543994e+03 3.74185376e+03 3.88872778e+03 4.06647827e+03 4.21821924e+03 4.14850342e+03 4.08630029e+03 4.23728613e+03 4.28749805e+03 4.13201855e+03 4.13034961e+03 4.47000098e+03 4.50394824e+03 4.39257373e+03 4.36549219e+03 4.24811475e+03 4.51702246e+03 4.89652051e+03 4.79746924e+03 4.70580908e+03 4.59783496e+03 4.59694141e+03 4.93184521e+03 5.14688281e+03 5.04820996e+03 4.82548877e+03 4.83791797e+03 5.00010938e+03 5.11099658e+03 5.33452295e+03 5.26086816e+03 5.16047070e+03 5.33259229e+03 5.36188232e+03 5.55525537e+03 5.49378906e+03 5.39374463e+03 5.51344434e+03 5.55590479e+03 5.64424707e+03 5.49389209e+03 5.59839404e+03 6.00697510e+03 6.00047559e+03 5.77117480e+03 5.72097070e+03 5.84262451e+03 6.29767432e+03 6.35348242e+03 6.09895752e+03 5.93421387e+03 5.98277295e+03 6.23559375e+03 6.31469092e+03 6.32078320e+03 6.14033301e+03 6.32839258e+03 6.75594873e+03 6.57949805e+03 6.66723535e+03 6.78694775e+03 6.69350195e+03 6.72785547e+03 6.76007617e+03 6.73756641e+03 6.77114551e+03 6.90848730e+03 6.98144482e+03 7.10067090e+03 7.14275928e+03 6.88439258e+03 6.87325391e+03 7.19359619e+03 7.36435645e+03 7.49840820e+03 7.34183594e+03 7.16251514e+03 7.55630078e+03 7.81257031e+03 7.66070410e+03 7.44715088e+03 7.60525000e+03 7.40627734e+03 7.59289844e+03 7.89405371e+03 7.59761377e+03 7.81097998e+03 8.20358301e+03 8.13498584e+03 8.01781494e+03 7.91099854e+03 7.93628174e+03 8.40522461e+03 8.42791309e+03 8.23186426e+03 8.17299365e+03 8.06737793e+03 8.31978125e+03 8.50869043e+03 8.78218652e+03 8.52198828e+03 8.39766895e+03 8.60740137e+03 8.62492773e+03 8.92118555e+03 8.85722754e+03 8.68164648e+03 8.91014258e+03 8.99823242e+03 8.93083008e+03 8.72017188e+03 9.00161914e+03 9.33643262e+03 9.26826660e+03 9.18253027e+03 9.05177344e+03 9.11819824e+03 9.59908301e+03 9.65896484e+03 9.38051758e+03 9.18968164e+03 9.25773633e+03 9.55661621e+03 9.54437109e+03 9.85244043e+03 9.95625684e+03 9.69519043e+03 9.49492578e+03 9.61828711e+03 1.01630137e+04 9.93448535e+03 9.85695020e+03 1.01003369e+04 9.99858691e+03 9.79154199e+03 9.79267969e+03 1.02247393e+04 1.03130977e+04 1.01507363e+04 1.04172373e+04 1.05166797e+04 1.03549512e+04 1.04316182e+04 1.05024434e+04 1.04899238e+04 1.02146387e+04 1.02639775e+04 1.07901475e+04 1.08570879e+04 1.04087412e+04 1.01631465e+04 1.06473213e+04 1.13713447e+04 1.12498857e+04 1.06040713e+04 1.04401582e+04 1.11053135e+04 1.13024326e+04 1.10171387e+04 1.12197598e+04 1.09372295e+04 1.05242598e+04 1.09414854e+04
    2.10496729e+03 2.05568140e+03 2.08717261e+03 2.16186841e+03 2.20634424e+03 2.29793091e+03 2.30454419e+03 2.28969238e+03 2.32526538e+03 2.35092773e+03 2.46052124e+03 2.50794189e+03 2.43809912e+03 2.47265308e+03 2.63048877e+03 2.65946802e+03 2.56854175e+03 2.64173926e+03 2.79358203e+03 2.81208472e+03 2.80272876e+03 2.74889160e+03 2.78622803e+03 2.97495996e+03 3.01558081e+03 2.98044263e+03 2.96240332e+03 2.99018457e+03 3.10098926e+03 3.16225171e+03 3.20193286e+03 3.14502075e+03 3.27097314e+03 3.44595752e+03 3.38232690e+03 3.46411401e+03 3.47303711e+03 3.43460840e+03 3.51497656e+03 3.57592480e+03 3.60540088e+03 3.64019189e+03 3.61976685e+03 3.57883618e+03 3.73774536e+03 3.98515918e+03 3.82570093e+03 3.69117383e+03 3.84470679e+03 4.05833252e+03 4.29348242e+03 4.18603027e+03 4.08337109e+03 4.21409766e+03 4.25799023e+03 4.14408594e+03 4.14537939e+03 4.41894336e+03 4.45141553e+03 4.35011816e+03 4.37682129e+03 4.30586084e+03 4.53349219e+03 4.84837549e+03 4.78382080e+03 4.70168555e+03 4.61889111e+03 4.58218506e+03 4.89850488e+03 5.10475977e+03 5.01225928e+03 4.92242188e+03 4.92717236e+03 5.02614795e+03 5.04224121e+03 5.28842529e+03 5.22061865e+03 5.10883984e+03 5.25851074e+03 5.32075781e+03 5.61408154e+03 5.56603125e+03 5.36582520e+03 5.51979004e+03 5.53017236e+03 5.59857178e+03 5.56348486e+03 5.53575000e+03 5.90463672e+03 5.91256982e+03 5.82368115e+03 5.78547363e+03 5.81963037e+03 6.21088525e+03 6.32412744e+03 6.12612646e+03 6.00926758e+03 5.97407324e+03 6.15772021e+03 6.26594531e+03 6.32410059e+03 6.19296533e+03 6.33961865e+03 6.64360205e+03 6.49826416e+03 6.70705713e+03 6.84359814e+03 6.62787793e+03 6.68478809e+03 6.78181836e+03 6.83292822e+03 6.83809521e+03 6.86613281e+03 6.90621533e+03 7.04102930e+03 7.11579834e+03 6.88172705e+03 6.93868115e+03 7.19877393e+03 7.35614551e+03 7.50276318e+03 7.38217480e+03 7.22721875e+03 7.43848975e+03 7.69568262e+03 7.61510596e+03 7.55069629e+03 7.79624414e+03 7.42259912e+03 7.41559473e+03 7.91006006e+03 7.74343115e+03 7.85164062e+03 8.12862549e+03 8.11099658e+03 8.01739014e+03 7.93624805e+03 7.98043311e+03 8.30238184e+03 8.36382617e+03 8.33223828e+03 8.18103564e+03 8.03783008e+03 8.28755176e+03 8.54207031e+03 8.76208398e+03 8.58768457e+03 8.44564160e+03 8.54812012e+03 8.63650781e+03 9.00499805e+03 8.89669824e+03 8.68978906e+03 8.73166797e+03 8.78671484e+03 8.98664648e+03 8.85191309e+03 8.88758594e+03 9.38543457e+03 9.28572168e+03 9.14443652e+03 9.04341406e+03 9.04615430e+03 9.59671484e+03 9.64818164e+03 9.30553418e+03 9.18670117e+03 9.24159375e+03 9.47118359e+03 9.57703027e+03 9.91083691e+03 9.93108301e+03 9.61656934e+03 9.41976562e+03 9.64384180e+03 1.01398545e+04 1.00731934e+04 9.91914453e+03 9.96788184e+03 9.90917969e+03 9.82751465e+03 9.86733594e+03 1.01261641e+04 1.01311338e+04 1.00998535e+04 1.05214893e+04 1.05373643e+04 1.03632900e+04 1.03832949e+04 1.04242578e+04 1.04688428e+04 1.01850781e+04 1.02028564e+04 1.08452988e+04 1.08268691e+04 1.02998828e+04 1.02234248e+04 1.07892803e+04 1.12684717e+04 1.10935234e+04 1.06708359e+04 1.05103730e+04 1.10442275e+04 1.12262822e+04 1.10357090e+04 1.12080410e+04 1.08639111e+04 1.03823271e+04 1.09010654e+04
    2.07085059e+03 2.05135889e+03 2.08787402e+03 2.17453540e+03 2.20133838e+03 2.29810327e+03 2.32098193e+03 2.29107007e+03 2.31760010e+03 2.35152124e+03 2.44245947e+03 2.49099414e+03 2.44996143e+03 2.47775879e+03 2.64825269e+03 2.65795850e+03 2.55269116e+03 2.64896948e+03 2.81073071e+03 2.81543677e+03 2.79797534e+03 2.75489014e+03 2.78300317e+03 2.98280322e+03 3.03218579e+03 2.99150146e+03 2.95546069e+03 2.97168384e+03 3.07282373e+03 3.14488965e+03 3.19502222e+03 3.14719238e+03 3.26496997e+03 3.46366528e+03 3.39334180e+03 3.42882104e+03 3.48934229e+03 3.46327002e+03 3.49943335e+03 3.56324976e+03 3.61794971e+03 3.62740430e+03 3.63750732e+03 3.57780737e+03 3.70067871e+03 3.90361987e+03 3.79509839e+03 3.75158691e+03 3.89786621e+03 4.00613110e+03 4.19230908e+03 4.16313867e+03 4.07827881e+03 4.20143848e+03 4.23312012e+03 4.12453955e+03 4.16708008e+03 4.43052979e+03 4.44864600e+03 4.38673730e+03 4.31671436e+03 4.22971240e+03 4.52584277e+03 4.91102051e+03 4.83295312e+03 4.67551807e+03 4.60381934e+03 4.57415381e+03 4.90948975e+03 5.06047852e+03 4.94634375e+03 4.85170605e+03 4.82875391e+03 4.97997510e+03 5.07629199e+03 5.30398633e+03 5.28515479e+03 5.18685059e+03 5.25541113e+03 5.30372314e+03 5.55732568e+03 5.57018896e+03 5.44444287e+03 5.42080273e+03 5.46550098e+03 5.58978857e+03 5.52283008e+03 5.58336523e+03 5.92933057e+03 5.91894775e+03 5.84829248e+03 5.78007178e+03 5.76622363e+03 6.22776367e+03 6.33394092e+03 6.10729297e+03 6.00239941e+03 6.00170312e+03 6.17098145e+03 6.26111719e+03 6.30642383e+03 6.18288525e+03 6.31421729e+03 6.68791113e+03 6.60487061e+03 6.67997021e+03 6.75648584e+03 6.62115820e+03 6.68426807e+03 6.70807080e+03 6.82428174e+03 6.81469971e+03 6.93649658e+03 7.01244629e+03 7.06840088e+03 7.13655127e+03 6.94943799e+03 6.88998584e+03 7.11660107e+03 7.27069092e+03 7.50191455e+03 7.46605469e+03 7.31407373e+03 7.52797607e+03 7.61262744e+03 7.54192529e+03 7.55320947e+03 7.75604590e+03 7.47189551e+03 7.44936963e+03 7.87475488e+03 7.61682324e+03 7.83025000e+03 8.26495020e+03 8.14454883e+03 8.04348145e+03 7.97871729e+03 7.92527783e+03 8.32437695e+03 8.30634180e+03 8.23515430e+03 8.14683594e+03 8.10668311e+03 8.33462207e+03 8.42836816e+03 8.67262695e+03 8.61443945e+03 8.47949414e+03 8.54850977e+03 8.61249219e+03 8.91036133e+03 8.88244824e+03 8.74025781e+03 8.74156738e+03 8.79896875e+03 9.00857129e+03 8.80243457e+03 8.95059863e+03 9.47238672e+03 9.24741113e+03 9.08442676e+03 9.02037109e+03 9.10362988e+03 9.58038184e+03 9.66203711e+03 9.33196387e+03 9.15982910e+03 9.22187305e+03 9.50687207e+03 9.59714160e+03 9.88351074e+03 9.85522949e+03 9.70533984e+03 9.54430957e+03 9.61253906e+03 1.01487588e+04 1.00387900e+04 9.79217773e+03 1.00379180e+04 9.99963281e+03 9.87306152e+03 9.95492578e+03 1.02030625e+04 1.00482383e+04 1.00117881e+04 1.05683574e+04 1.05746660e+04 1.02770742e+04 1.03081133e+04 1.04021182e+04 1.05176211e+04 1.02201123e+04 1.02051152e+04 1.08621641e+04 1.08303672e+04 1.02400195e+04 1.01358984e+04 1.07649053e+04 1.13492363e+04 1.11403691e+04 1.06372803e+04 1.05408799e+04 1.10555957e+04 1.11238389e+04 1.09077207e+04 1.11460605e+04 1.09078613e+04 1.05451182e+04 1.09659570e+04
    2.05948999e+03 2.04098816e+03 2.08407910e+03 2.17455225e+03 2.19818091e+03 2.29360571e+03 2.31462305e+03 2.28809985e+03 2.33773389e+03 2.36087476e+03 2.44348511e+03 2.49553613e+03 2.43535278e+03 2.47170630e+03 2.62646460e+03 2.62996655e+03 2.53464453e+03 2.66907837e+03 2.84610376e+03 2.81399512e+03 2.79277954e+03 2.75125684e+03 2.78157812e+03 2.97554565e+03 3.01962036e+03 2.98778394e+03 2.95195679e+03 2.98222217e+03 3.09963257e+03 3.15192407e+03 3.20065356e+03 3.13871851e+03 3.24644141e+03 3.44778613e+03 3.41404248e+03 3.41296606e+03 3.43967969e+03 3.44420312e+03 3.50973657e+03 3.54700977e+03 3.60363428e+03 3.61969800e+03 3.66362427e+03 3.62940894e+03 3.72966724e+03 3.91982959e+03 3.77400659e+03 3.68236377e+03 3.85834204e+03 4.05404199e+03 4.26280859e+03 4.19427441e+03 4.09663379e+03 4.14548828e+03 4.20503516e+03 4.14905664e+03 4.15356055e+03 4.39303857e+03 4.39798340e+03 4.36683789e+03 4.37243164e+03 4.29008740e+03 4.54198975e+03 4.86878906e+03 4.77209717e+03 4.68155176e+03 4.59173193e+03 4.61036768e+03 4.97378760e+03 5.08649219e+03 4.94121143e+03 4.85878906e+03 4.86981055e+03 4.97064355e+03 5.06069727e+03 5.29545508e+03 5.27506201e+03 5.14596387e+03 5.25454150e+03 5.30274609e+03 5.55355615e+03 5.53628271e+03 5.37392041e+03 5.53814893e+03 5.55061377e+03 5.51052539e+03 5.40794043e+03 5.56069238e+03 5.93256104e+03 5.94420752e+03 5.84444434e+03 5.75541992e+03 5.79815479e+03 6.18376904e+03 6.30498633e+03 6.07859180e+03 5.99153418e+03 5.97532373e+03 6.14779541e+03 6.25024512e+03 6.35332568e+03 6.24190137e+03 6.35219141e+03 6.67872998e+03 6.54362354e+03 6.61212207e+03 6.72380371e+03 6.64600977e+03 6.83549316e+03 6.82660352e+03 6.63732812e+03 6.72423535e+03 7.02788623e+03 7.07638037e+03 7.06933398e+03 7.08194336e+03 6.88202881e+03 6.92267969e+03 7.16392822e+03 7.23489697e+03 7.51548438e+03 7.43291602e+03 7.20345020e+03 7.52193408e+03 7.69676221e+03 7.61991309e+03 7.45924658e+03 7.66149658e+03 7.45994678e+03 7.49500781e+03 7.79575293e+03 7.60079932e+03 7.83620361e+03 8.25255078e+03 8.18016260e+03 7.95623828e+03 7.84414404e+03 7.96372803e+03 8.37579004e+03 8.40950293e+03 8.27242773e+03 8.12356689e+03 8.08911475e+03 8.39577832e+03 8.48280762e+03 8.68546289e+03 8.59629199e+03 8.40981738e+03 8.54855371e+03 8.63484180e+03 8.98429980e+03 8.80808691e+03 8.66440527e+03 8.82875781e+03 8.97287109e+03 8.98357715e+03 8.74400977e+03 8.86215430e+03 9.45451758e+03 9.38839551e+03 9.03554395e+03 8.95275391e+03 9.02855762e+03 9.62030664e+03 9.63468848e+03 9.39463574e+03 9.19850293e+03 9.25423730e+03 9.49599609e+03 9.56975195e+03 9.83368945e+03 9.82342578e+03 9.58272656e+03 9.51366504e+03 9.71875391e+03 1.01583223e+04 9.93972656e+03 9.86814062e+03 1.01105215e+04 1.00588711e+04 9.79338281e+03 9.78321582e+03 1.01627197e+04 1.00921377e+04 1.00119561e+04 1.05980684e+04 1.06001221e+04 1.03360879e+04 1.02977598e+04 1.03211963e+04 1.04827031e+04 1.02780615e+04 1.02077969e+04 1.07419658e+04 1.08109395e+04 1.03761035e+04 1.02677295e+04 1.07973809e+04 1.11808564e+04 1.10513047e+04 1.07405479e+04 1.05555508e+04 1.10329111e+04 1.13501113e+04 1.10922803e+04 1.10131680e+04 1.08456709e+04 1.05665645e+04 1.10857852e+04
    2.06565723e+03 2.02794788e+03 2.07577148e+03 2.17082617e+03 2.19990674e+03 2.29302002e+03 2.30308667e+03 2.27465576e+03 2.33686914e+03 2.35935913e+03 2.43171021e+03 2.48169922e+03 2.43244946e+03 2.47445947e+03 2.64198047e+03 2.62900854e+03 2.54044165e+03 2.65119043e+03 2.82914868e+03 2.80703516e+03 2.76681030e+03 2.75631934e+03 2.82328784e+03 2.97038452e+03 2.99377661e+03 2.97535352e+03 2.95595874e+03 2.99627319e+03 3.10136963e+03 3.13573828e+03 3.19424707e+03 3.16188452e+03 3.26209595e+03 3.40362891e+03 3.35489795e+03 3.44070264e+03 3.46938501e+03 3.42472632e+03 3.47475854e+03 3.54103149e+03 3.62063721e+03 3.62888403e+03 3.62616089e+03 3.59388574e+03 3.72291968e+03 3.99197485e+03 3.84558740e+03 3.70471387e+03 3.87739990e+03 4.04270972e+03 4.22325342e+03 4.12173145e+03 4.04977197e+03 4.23783252e+03 4.26507861e+03 4.11315527e+03 4.10842920e+03 4.42415527e+03 4.49357959e+03 4.38804834e+03 4.35538867e+03 4.23533936e+03 4.50787598e+03 4.87642041e+03 4.77717285e+03 4.70613379e+03 4.59719141e+03 4.55600439e+03 4.90172607e+03 5.12435156e+03 5.03317285e+03 4.81745557e+03 4.79180273e+03 5.00306201e+03 5.12313916e+03 5.28968750e+03 5.24642969e+03 5.14581006e+03 5.29491406e+03 5.31763525e+03 5.53431055e+03 5.52311963e+03 5.35383789e+03 5.47484326e+03 5.55390186e+03 5.61998047e+03 5.48969482e+03 5.58258838e+03 6.00816016e+03 5.94990088e+03 5.77721094e+03 5.67364990e+03 5.80938135e+03 6.26287549e+03 6.32844678e+03 6.07192529e+03 5.90860156e+03 5.93698096e+03 6.22828418e+03 6.29422217e+03 6.28687744e+03 6.13263770e+03 6.36936182e+03 6.73836621e+03 6.53239502e+03 6.70794678e+03 6.73327344e+03 6.61070703e+03 6.76453906e+03 6.77667920e+03 6.75010547e+03 6.74478613e+03 6.89868311e+03 7.01033252e+03 7.06648047e+03 7.14043945e+03 6.82605469e+03 6.87133545e+03 7.17019141e+03 7.26368018e+03 7.54404736e+03 7.40076416e+03 7.13979590e+03 7.52328662e+03 7.78968994e+03 7.63383838e+03 7.46523389e+03 7.67491309e+03 7.43805908e+03 7.52337793e+03 7.89341260e+03 7.53128857e+03 7.78758008e+03 8.23847363e+03 8.09983008e+03 7.96441016e+03 7.89566113e+03 7.93453955e+03 8.41274902e+03 8.41771191e+03 8.22014355e+03 8.14959570e+03 8.05181982e+03 8.24516992e+03 8.45709766e+03 8.71771387e+03 8.54249121e+03 8.36954102e+03 8.52200977e+03 8.67395215e+03 8.93282715e+03 8.89397266e+03 8.69388965e+03 8.83434473e+03 8.92841406e+03 8.90872852e+03 8.69709375e+03 8.95819727e+03 9.37187598e+03 9.20416211e+03 9159. 9.01137598e+03 9.07852930e+03 9.61252832e+03 9.64614941e+03 9.35255664e+03 9.19212109e+03 9.20955664e+03 9.49031934e+03 9.51335547e+03 9.82948340e+03 9.92929590e+03 9.63573535e+03 9.51238770e+03 9.64575684e+03 1.01043584e+04 9.91216309e+03 9.80769824e+03 1.00720635e+04 9.99584473e+03 9.79692090e+03 9.77138867e+03 1.01793398e+04 1.02937783e+04 1.01284873e+04 1.04268623e+04 1.04919014e+04 1.03366641e+04 1.03872607e+04 1.04635420e+04 1.04429658e+04 1.02182012e+04 1.02387930e+04 1.07801562e+04 1.08229863e+04 1.04100449e+04 1.01583154e+04 1.06247188e+04 1.13554355e+04 1.12362949e+04 1.06055000e+04 1.04305684e+04 1.11040840e+04 1.13015391e+04 1.09921143e+04 1.12042949e+04 1.09104277e+04 1.04813691e+04 1.08966846e+04
    2.09216455e+03 2.05242432e+03 2.08280835e+03 2.15599829e+03 2.18935645e+03 2.28952612e+03 2.29637939e+03 2.28034692e+03 2.31804907e+03 2.33663672e+03 2.45581567e+03 2.50030469e+03 2.43121680e+03 2.46476270e+03 2.61913818e+03 2.64937378e+03 2.56432788e+03 2.64271167e+03 2.79415381e+03 2.81538525e+03 2.79299316e+03 2.73912964e+03 2.77676782e+03 2.97116724e+03 3.00393970e+03 2.97666333e+03 2.94969653e+03 2.96167407e+03 3.08765503e+03 3.17593750e+03 3.20287085e+03 3.12094922e+03 3.24592407e+03 3.42273633e+03 3.36827783e+03 3.45503882e+03 3.46291748e+03 3.42473071e+03 3.49896362e+03 3.54939697e+03 3.60330078e+03 3.61735913e+03 3.59118066e+03 3.55997876e+03 3.73894897e+03 3.98632153e+03 3.82604053e+03 3.66926318e+03 3.83402197e+03 4.06541382e+03 4.25201611e+03 4.14826465e+03 4.05644019e+03 4.21646973e+03 4.23796484e+03 4.11579736e+03 4.11885449e+03 4.38189160e+03 4.44020410e+03 4.35460010e+03 4.34737402e+03 4.29388770e+03 4.50636133e+03 4.84658008e+03 4.78144531e+03 4.73045020e+03 4.63850293e+03 4.54144775e+03 4.85461426e+03 5.09471094e+03 5.01492480e+03 4.90117676e+03 4.91412305e+03 4.99663770e+03 5.01003516e+03 5.25002588e+03 5.19731982e+03 5.10507178e+03 5.25230127e+03 5.31152734e+03 5.61837207e+03 5.54106396e+03 5.39342773e+03 5.51811426e+03 5.51363037e+03 5.61418066e+03 5.54039941e+03 5.53901807e+03 5.88711572e+03 5.90715527e+03 5.80900488e+03 5.76837549e+03 5.78367188e+03 6.21786621e+03 6.30975879e+03 6.11196826e+03 5.97816504e+03 6.00657715e+03 6.17598242e+03 6.24310156e+03 6.31139502e+03 6.19985693e+03 6.34110889e+03 6.62044580e+03 6.48280664e+03 6.72642480e+03 6.75100879e+03 6.56612012e+03 6.72356592e+03 6.79197266e+03 6.82302979e+03 6.87802734e+03 6.88248877e+03 6.91975537e+03 7.05572266e+03 7.09429688e+03 6.84640869e+03 6.94113525e+03 7.16857471e+03 7.33966797e+03 7.53999268e+03 7.42445410e+03 7.19360547e+03 7.47091650e+03 7.65743750e+03 7.62317139e+03 7.54978418e+03 7.82942725e+03 7.34540332e+03 7.34562793e+03 7.92971875e+03 7.71746436e+03 7.82765234e+03 8.09554297e+03 8.06780859e+03 8.05437158e+03 7.91954688e+03 7.95386230e+03 8.29779492e+03 8.34247070e+03 8.33421191e+03 8.15752490e+03 8.04883789e+03 8.25560059e+03 8.55223438e+03 8.79424121e+03 8.58266602e+03 8.41647949e+03 8.50971777e+03 8.63380859e+03 9.02042773e+03 8.90717773e+03 8.68994434e+03 8.69771094e+03 8.79524512e+03 9.00741406e+03 8.82623535e+03 8.89206055e+03 9.37630176e+03 9.28964941e+03 9.11500391e+03 8.99998535e+03 9.06474414e+03 9.64013379e+03 9.65318750e+03 9.32449121e+03 9.18701074e+03 9.23302734e+03 9.46833496e+03 9.58649512e+03 9.89687402e+03 9.88708301e+03 9.58727148e+03 9.40600195e+03 9.63178809e+03 1.01605391e+04 1.00436621e+04 9.92679199e+03 9.97346387e+03 9.85142578e+03 9.81940527e+03 9.84860254e+03 1.01376084e+04 1.01100254e+04 1.00754238e+04 1.05102051e+04 1.05256777e+04 1.03406357e+04 1.03335244e+04 1.03806406e+04 1.04797236e+04 1.01820039e+04 1.01481260e+04 1.08155000e+04 1.08578379e+04 1.03397285e+04 1.02191826e+04 1.07710967e+04 1.12356182e+04 1.10744395e+04 1.06414863e+04 1.05150430e+04 1.10361484e+04 1.11617451e+04 1.09802578e+04 1.11595010e+04 1.08572568e+04 1.03969131e+04 1.08630635e+04
    2.06740820e+03 2.04421057e+03 2.08642920e+03 2.16754077e+03 2.19603955e+03 2.28820435e+03 2.31196606e+03 2.28536572e+03 2.30908472e+03 2.34153198e+03 2.43247437e+03 2.47924707e+03 2.43297681e+03 2.47192041e+03 2.63047729e+03 2.64667993e+03 2.54041455e+03 2.63363330e+03 2.80712793e+03 2.81368555e+03 2.78292285e+03 2.74135059e+03 2.77551270e+03 2.97623291e+03 3.02249146e+03 2.98319580e+03 2.93863525e+03 2.94877686e+03 3.06525732e+03 3.15176343e+03 3.19501245e+03 3.13381958e+03 3.24935425e+03 3.44368970e+03 3.37961108e+03 3.42792236e+03 3.46527368e+03 3.44998853e+03 3.49529688e+03 3.55160181e+03 3.60891479e+03 3.60944531e+03 3.61489575e+03 3.56236572e+03 3.70004150e+03 3.92486133e+03 3.80317920e+03 3.74535498e+03 3.90020557e+03 4.00806543e+03 4.19529053e+03 4.15906006e+03 4.07594849e+03 4.17996094e+03 4.22465234e+03 4.13247461e+03 4.16601123e+03 4.42628809e+03 4.45088379e+03 4.39983154e+03 4.30317383e+03 4.19952490e+03 4.49956787e+03 4.89994043e+03 4.81757812e+03 4.68168408e+03 4.59680811e+03 4.54808838e+03 4.88600586e+03 5.09096875e+03 4.95604541e+03 4.85220312e+03 4.83934180e+03 4.95916895e+03 5.06422217e+03 5.28159766e+03 5.28800488e+03 5.17645898e+03 5.23905811e+03 5.27942432e+03 5.53369678e+03 5.56510010e+03 5.44247168e+03 5.44952393e+03 5.43666064e+03 5.58473633e+03 5.52809961e+03 5.55390479e+03 5.89968359e+03 5.89933105e+03 5.83061279e+03 5.74169043e+03 5.73913867e+03 6.19958984e+03 6.31577002e+03 6.10953467e+03 5.98899121e+03 6.00015039e+03 6.16109473e+03 6.24430127e+03 6.29097168e+03 6.18732715e+03 6.30259082e+03 6.70788232e+03 6.58382617e+03 6.70386035e+03 6.76839551e+03 6.61323340e+03 6.65493506e+03 6.69897510e+03 6.79574609e+03 6.81110742e+03 6.93010547e+03 6.99983398e+03 7.04704639e+03 7.11554443e+03 6.93121729e+03 6.86607568e+03 7.08754150e+03 7.28310986e+03 7.46353760e+03 7.42791504e+03 7.29559570e+03 7.52732812e+03 7.59572900e+03 7.55212793e+03 7.54333008e+03 7.73570264e+03 7.45519434e+03 7.42995166e+03 7.86816699e+03 7.64571338e+03 7.75880127e+03 8.22770801e+03 8.14104102e+03 8.02552881e+03 7.94001172e+03 7.93825781e+03 8.33295801e+03 8.29962402e+03 8.17751904e+03 8.10890137e+03 8.11974805e+03 8.35698535e+03 8.42492676e+03 8.69227246e+03 8.58051074e+03 8.40799609e+03 8.53326660e+03 8.58680371e+03 8.89959863e+03 8.89565723e+03 8.71520996e+03 8.73978125e+03 8.80439648e+03 8.95096973e+03 8.75521680e+03 8.92911719e+03 9.44167578e+03 9.20869434e+03 9.09044336e+03 9.02948242e+03 9.07018066e+03 9.57568652e+03 9.63332129e+03 9.36111523e+03 9.19408203e+03 9.21545508e+03 9.50865234e+03 9.54593066e+03 9.84273438e+03 9.84026270e+03 9.65476367e+03 9.50491113e+03 9.56079492e+03 1.01767861e+04 9.96474512e+03 9.77671582e+03 1.00018145e+04 9.99200977e+03 9.85707324e+03 9.95907227e+03 1.02032910e+04 1.00281299e+04 1.00161992e+04 1.05617695e+04 1.05300195e+04 1.02608486e+04 1.02779863e+04 1.04051074e+04 1.05306445e+04 1.02180361e+04 1.01929482e+04 1.08743340e+04 1.08305078e+04 1.02656230e+04 1.01451836e+04 1.07486133e+04 1.13255586e+04 1.10968379e+04 1.06188496e+04 1.05375811e+04 1.10697041e+04 1.10609365e+04 1.08530410e+04 1.11151367e+04 1.08971719e+04 1.05315342e+04 1.09279492e+04
    2.05322925e+03 2.03854968e+03 2.07808984e+03 2.16298071e+03 2.18416577e+03 2.28505713e+03 2.30018311e+03 2.27287012e+03 2.32969556e+03 2.35335669e+03 2.43621094e+03 2.48157666e+03 2.42739502e+03 2.45902002e+03 2.62321899e+03 2.62086792e+03 2.52292822e+03 2.65358081e+03 2.83525439e+03 2.81024438e+03 2.77322827e+03 2.73507300e+03 2.77495020e+03 2.97107300e+03 3.01289111e+03 2.97986401e+03 2.94588232e+03 2.95842236e+03 3.07932422e+03 3.15715479e+03 3.20429541e+03 3.13881519e+03 3.24114624e+03 3.43797290e+03 3.38649609e+03 3.40631494e+03 3.43897852e+03 3.44494873e+03 3.49774048e+03 3.54459546e+03 3.59248413e+03 3.61839258e+03 3.66056714e+03 3.61623901e+03 3.73675415e+03 3.93947021e+03 3.78790210e+03 3.68916187e+03 3.83468970e+03 4.04661450e+03 4.24263037e+03 4.18259229e+03 4.10916211e+03 4.13751416e+03 4.17229297e+03 4.14056738e+03 4.15188770e+03 4.35588672e+03 4.41218848e+03 4.40117871e+03 4.37353906e+03 4.24997998e+03 4.50924414e+03 4.89328418e+03 4.77616260e+03 4.64298682e+03 4.56303271e+03 4.62881982e+03 4.94622119e+03 5.08184961e+03 4.94308301e+03 4.84031201e+03 4.85895020e+03 4.94963574e+03 5.03720508e+03 5.30288428e+03 5.24120752e+03 5.13499512e+03 5.25163232e+03 5.30367480e+03 5.53764893e+03 5.53134570e+03 5.37436035e+03 5.50644043e+03 5.56233789e+03 5.51814551e+03 5.38814551e+03 5.56821387e+03 5.94594824e+03 5.93127344e+03 5.82532666e+03 5.75580469e+03 5.80326904e+03 6.20068164e+03 6.31851025e+03 6.05933057e+03 5.96259961e+03 5.97495264e+03 6.16258057e+03 6.26359521e+03 6.34296387e+03 6.25402783e+03 6.34585645e+03 6.62647119e+03 6.52832422e+03 6.65282910e+03 6.71065479e+03 6.64077295e+03 6.75887451e+03 6.81160596e+03 6.64839453e+03 6.65841553e+03 7.05474707e+03 7.09423828e+03 7.05598730e+03 7.04547119e+03 6.88626611e+03 6.88583936e+03 7.16317334e+03 7.22653662e+03 7.46486816e+03 7.47108594e+03 7.19805176e+03 7.48786621e+03 7.73841113e+03 7.56773438e+03 7.42587939e+03 7.56400195e+03 7.59343555e+03 7.57636084e+03 7.75704150e+03 7.58063184e+03 7.81150391e+03 8.29672363e+03 8.14634570e+03 7.93170410e+03 7.82660693e+03 7.92724316e+03 8.35315820e+03 8.33746387e+03 8.23796777e+03 8.12098438e+03 8.11069238e+03 8.36089062e+03 8.43375000e+03 8.66217578e+03 8.57862500e+03 8.39463379e+03 8.49183984e+03 8.61602930e+03 8.91664453e+03 8.78012891e+03 8.62172754e+03 8.80902734e+03 8.90138965e+03 8.95929492e+03 8.74559766e+03 8.85846680e+03 9.39237305e+03 9.39463965e+03 9.07466699e+03 8.91637695e+03 9.05215430e+03 9.55301270e+03 9.62022168e+03 9.36102539e+03 9.20097461e+03 9.23933203e+03 9.48019238e+03 9.59129980e+03 9.82756934e+03 9.83708887e+03 9.55788770e+03 9.50036914e+03 9.73290723e+03 1.01491836e+04 9.94975391e+03 9.83360742e+03 1.01097041e+04 1.00427236e+04 9.76957520e+03 9.79953125e+03 1.01666357e+04 1.00881748e+04 1.00170918e+04 1.05572578e+04 1.05604258e+04 1.03484912e+04 1.03063916e+04 1.03221270e+04 1.04850352e+04 1.02486729e+04 1.02225176e+04 1.07199678e+04 1.08175850e+04 1.03431396e+04 1.02681113e+04 1.08042266e+04 1.11609746e+04 1.10234160e+04 1.07301035e+04 1.05460996e+04 1.10407979e+04 1.13154062e+04 1.10190889e+04 1.09706191e+04 1.08452354e+04 1.05867207e+04 1.10550127e+04
    2.06045801e+03 2.02661987e+03 2.07211743e+03 2.16651831e+03 2.20026245e+03 2.28796582e+03 2.29239526e+03 2.27177612e+03 2.33079834e+03 2.35171411e+03 2.42627783e+03 2.47776318e+03 2.42837134e+03 2.47014868e+03 2.63512158e+03 2.62655908e+03 2.53650415e+03 2.65011255e+03 2.81862427e+03 2.80542920e+03 2.75923364e+03 2.74971240e+03 2.81155664e+03 2.97107764e+03 2.99427271e+03 2.96563306e+03 2.95310034e+03 2.99403198e+03 3.09662134e+03 3.13096924e+03 3.18943506e+03 3.16015405e+03 3.25882690e+03 3.39451660e+03 3.33546875e+03 3.44534985e+03 3.48132324e+03 3.43231299e+03 3.48157520e+03 3.54768896e+03 3.60819043e+03 3.63722168e+03 3.62600391e+03 3.57305200e+03 3.70583984e+03 3.99173096e+03 3.85283618e+03 3.70557031e+03 3.86001758e+03 4.02313354e+03 4.19590674e+03 4.12894629e+03 4.03168384e+03 4.21578662e+03 4.25674268e+03 4.09681689e+03 4.07201978e+03 4.40437256e+03 4.50488086e+03 4.40343311e+03 4.33810938e+03 4.21283301e+03 4.49378857e+03 4.89608057e+03 4.82257373e+03 4.66076904e+03 4.57198730e+03 4.56645752e+03 4.89230420e+03 5.11894434e+03 4.99632666e+03 4.80180176e+03 4.81563281e+03 4.99352441e+03 5.10561816e+03 5.27040771e+03 5.25007861e+03 5.15646680e+03 5.29772168e+03 5.31670264e+03 5.54229785e+03 5.50469922e+03 5.35750928e+03 5.45295508e+03 5.54781299e+03 5.59003613e+03 5.46286377e+03 5.56909766e+03 6.04720898e+03 5.96798389e+03 5.74745020e+03 5.66888574e+03 5.82377930e+03 6.26468750e+03 6.31585205e+03 6.06027734e+03 5.90312549e+03 5.94951025e+03 6.19045020e+03 6.31459668e+03 6.28380908e+03 6.12004443e+03 6.32599023e+03 6.71783789e+03 6.51480029e+03 6.69509033e+03 6.76420801e+03 6.60016504e+03 6.71245117e+03 6.74900781e+03 6.70880713e+03 6.74315625e+03 6.89588965e+03 6.97356738e+03 7.06479932e+03 7.14465332e+03 6.84154004e+03 6.82808252e+03 7.13683252e+03 7.29168408e+03 7.51258936e+03 7.37650439e+03 7.12564795e+03 7.49180664e+03 7.78213574e+03 7.63597168e+03 7.41086475e+03 7.52653223e+03 7.58091602e+03 7.61022949e+03 7.70260107e+03 7.52564844e+03 7.77617578e+03 8.18278027e+03 8.11438623e+03 7.99898926e+03 7.89601660e+03 7.93655664e+03 8.36081250e+03 8.39495117e+03 8.21761230e+03 8.11690332e+03 8.05044824e+03 8.26709180e+03 8.50231250e+03 8.75151074e+03 8.54709863e+03 8.35452930e+03 8.53125684e+03 8.65207715e+03 8.94991895e+03 8.85943359e+03 8.67592578e+03 8.83351758e+03 8.93950879e+03 8.88709961e+03 8.75202441e+03 8.96254590e+03 9.39826172e+03 9.26077051e+03 9.20048633e+03 9.05924902e+03 9.08202148e+03 9.53876172e+03 9.57359668e+03 9.35614062e+03 9.15076074e+03 9.19366504e+03 9.49241504e+03 9.52859180e+03 9.83928418e+03 9.89902051e+03 9.64508789e+03 9.46260645e+03 9.61410254e+03 1.01141172e+04 9.91731934e+03 9.78236328e+03 1.00612666e+04 9.97250000e+03 9.78864453e+03 9.77205664e+03 1.01926367e+04 1.02928975e+04 1.01314346e+04 1.04049219e+04 1.04614473e+04 1.03474902e+04 1.04083379e+04 1.04602207e+04 1.04186094e+04 1.01951016e+04 1.02501309e+04 1.07680752e+04 1.08374150e+04 1.03891006e+04 1.01360723e+04 1.06363652e+04 1.13481338e+04 1.12045947e+04 1.05824395e+04 1.04101992e+04 1.11083066e+04 1.12706846e+04 1.09567744e+04 1.11749141e+04 1.09017871e+04 1.04903936e+04 1.08797422e+04
    2.09205518e+03 2.05294116e+03 2.07882178e+03 2.15061401e+03 2.18658618e+03 2.27954102e+03 2.29388354e+03 2.27818115e+03 2.31697217e+03 2.34185327e+03 2.44886206e+03 2.49524658e+03 2.42736768e+03 2.46084180e+03 2.61706763e+03 2.65358960e+03 2.55478101e+03 2.63513135e+03 2.79642847e+03 2.81356909e+03 2.78704980e+03 2.72956982e+03 2.77544067e+03 2.96045752e+03 3.00631250e+03 2.97352515e+03 2.94723413e+03 2.96596826e+03 3.07098535e+03 3.14338794e+03 3.19250586e+03 3.12043579e+03 3.23614478e+03 3.41027808e+03 3.35386108e+03 3.45932275e+03 3.47125342e+03 3.42291846e+03 3.48954956e+03 3.55701904e+03 3.59513794e+03 3.60265967e+03 3.57610645e+03 3.54989673e+03 3.73519653e+03 3.97873755e+03 3.81031421e+03 3.67069702e+03 3.81913037e+03 4.05059692e+03 4.27245752e+03 4.17289551e+03 4.07761304e+03 4.20213184e+03 4.23299121e+03 4.10888281e+03 4.09705859e+03 4.36403271e+03 4.45219678e+03 4.37758350e+03 4.36019971e+03 4.27203809e+03 4.49149805e+03 4.87905322e+03 4.78130713e+03 4.68238623e+03 4.57575000e+03 4.56070508e+03 4.87381348e+03 5.08241016e+03 5.00510107e+03 4.87969434e+03 4.90151709e+03 5.00369727e+03 5.01980469e+03 5.21940234e+03 5.19788965e+03 5.11846533e+03 5.26701074e+03 5.28484619e+03 5.59221240e+03 5.56478857e+03 5.37398242e+03 5.49278564e+03 5.51403076e+03 5.58205713e+03 5.49698877e+03 5.55620166e+03 5.94451270e+03 5.91358057e+03 5.81097852e+03 5.73753662e+03 5.80640137e+03 6.23248926e+03 6.32175244e+03 6.09403223e+03 5.97153320e+03 6.00968311e+03 6.14250439e+03 6.25288574e+03 6.28866016e+03 6.20196387e+03 6.29957715e+03 6.66121875e+03 6.47801172e+03 6.69667676e+03 6.77407275e+03 6.60215869e+03 6.71123438e+03 6.71546338e+03 6.80405322e+03 6.83123145e+03 6.82795898e+03 6.90729150e+03 7.08590430e+03 7.07572998e+03 6.88446631e+03 6.90905371e+03 7.17554492e+03 7.28674121e+03 7.49465771e+03 7.39911279e+03 7.20386816e+03 7.46928662e+03 7.63569141e+03 7.58910840e+03 7.56862988e+03 7.63730322e+03 7.51162061e+03 7.56171826e+03 7.76719678e+03 7.69422168e+03 7.78920459e+03 8.10853760e+03 8.05936133e+03 8.01179248e+03 7.92030371e+03 7.94942432e+03 8.34897168e+03 8.33980469e+03 8.30200977e+03 8.16471240e+03 8.02147998e+03 8.26816895e+03 8.51217383e+03 8.76196875e+03 8.57520410e+03 8.35648730e+03 8.50340625e+03 8.69337109e+03 9.01260547e+03 8.85884668e+03 8.68335840e+03 8.67131250e+03 8.76291797e+03 9.01127344e+03 8.83964746e+03 8.90406543e+03 9.37417383e+03 9.29192969e+03 9.19010840e+03 8.97378223e+03 9.02020605e+03 9.59017773e+03 9.64902734e+03 9.31237402e+03 9.15841211e+03 9.19256445e+03 9.43290137e+03 9.55857617e+03 9.85303418e+03 9.87696680e+03 9.62523926e+03 9.43832031e+03 9.61979199e+03 1.01564355e+04 1.00037002e+04 9.88195020e+03 9.97798535e+03 9.85649902e+03 9.82248633e+03 9.84409766e+03 1.01025703e+04 1.00885254e+04 1.00878770e+04 1.04917109e+04 1.04852969e+04 1.03370225e+04 1.03563672e+04 1.04065566e+04 1.04510400e+04 1.01845283e+04 1.01601240e+04 1.07797441e+04 1.08244160e+04 1.03339590e+04 1.02331719e+04 1.07936816e+04 1.12302695e+04 1.10682139e+04 1.06145986e+04 1.05112979e+04 1.10130596e+04 1.11861309e+04 1.10133369e+04 1.11594873e+04 1.08393867e+04 1.03825771e+04 1.08569121e+04
    2.06616626e+03 2.03995679e+03 2.08574902e+03 2.15988989e+03 2.19091089e+03 2.28753882e+03 2.30896460e+03 2.27975073e+03 2.30521265e+03 2.34467432e+03 2.43322949e+03 2.47473486e+03 2.43799756e+03 2.47179810e+03 2.63263379e+03 2.64561353e+03 2.53857178e+03 2.62889111e+03 2.80966724e+03 2.80608691e+03 2.77155981e+03 2.72496924e+03 2.77291235e+03 2.97807373e+03 3.01113110e+03 2.97754956e+03 2.94120361e+03 2.95345703e+03 3.05446606e+03 3.13915894e+03 3.19261279e+03 3.13678247e+03 3.25245044e+03 3.43876929e+03 3.37377295e+03 3.43246802e+03 3.47520215e+03 3.45007446e+03 3.48619531e+03 3.54868823e+03 3.59187671e+03 3.61011572e+03 3.60945923e+03 3.56600317e+03 3.69249756e+03 3.92779517e+03 3.82627441e+03 3.74721069e+03 3.89155762e+03 4.01112598e+03 4.18401660e+03 4.15907764e+03 4.06272363e+03 4.18374512e+03 4.23087793e+03 4.12085498e+03 4.16296094e+03 4.42740088e+03 4.46221338e+03 4.40832031e+03 4.31966211e+03 4.22404199e+03 4.52256543e+03 4.90855078e+03 4.82185645e+03 4.68276514e+03 4.59240430e+03 4.57317969e+03 4.91279004e+03 5.07005664e+03 4.95882422e+03 4.84545752e+03 4.83930811e+03 4.96047900e+03 5.05091699e+03 5.27444287e+03 5.29867480e+03 5.18809326e+03 5.24346631e+03 5.28350195e+03 5.52729053e+03 5.54938281e+03 5.45605273e+03 5.43627930e+03 5.44928906e+03 5.57534229e+03 5.49893506e+03 5.56498828e+03 5.91908691e+03 5.88691699e+03 5.83520215e+03 5.75070264e+03 5.75176465e+03 6.20750928e+03 6.31347168e+03 6.11523779e+03 6.00016553e+03 5.98753662e+03 6.13364648e+03 6.21060059e+03 6.28869434e+03 6.18440088e+03 6.29281738e+03 6.69253223e+03 6.56514648e+03 6.67123535e+03 6.74725830e+03 6.60572363e+03 6.64226709e+03 6.70024951e+03 6.78172412e+03 6.78793799e+03 6.92383105e+03 6.99345801e+03 7.02906445e+03 7.08663818e+03 6.95116016e+03 6.87045068e+03 7.11733447e+03 7.25844385e+03 7.46611426e+03 7.43947900e+03 7.30414551e+03 7.52100586e+03 7.57668896e+03 7.55461719e+03 7.52881348e+03 7.59407031e+03 7.58980908e+03 7.59238867e+03 7.69631934e+03 7.59760791e+03 7.76817090e+03 8.24950879e+03 8.12246533e+03 8.03804834e+03 7.92241992e+03 7.95180078e+03 8.29817285e+03 8.30167773e+03 8.20489258e+03 8.09286621e+03 8.12472607e+03 8.32373633e+03 8.43844434e+03 8.67602734e+03 8.60163379e+03 8.42525488e+03 8.52481934e+03 8.58536621e+03 8.87915234e+03 8.89635352e+03 8.69632422e+03 8.72324805e+03 8.81536621e+03 8.95052344e+03 8.78010059e+03 8.92186816e+03 9.42320996e+03 9.19971289e+03 9.09334180e+03 9.05559375e+03 9.09222461e+03 9.56127246e+03 9.59652637e+03 9.31125000e+03 9.12839844e+03 9.19354590e+03 9.47263379e+03 9.56180859e+03 9.84061133e+03 9.82144727e+03 9.68560645e+03 9.51888379e+03 9.58929199e+03 1.01230264e+04 1.00104346e+04 9.77693848e+03 1.00032100e+04 1.00024111e+04 9.85890820e+03 9.95494922e+03 1.02216406e+04 1.00421602e+04 9.99861328e+03 1.05702021e+04 1.05438936e+04 1.02415801e+04 1.02950918e+04 1.04029424e+04 1.04765918e+04 1.02144717e+04 1.01811826e+04 1.08806367e+04 1.08064336e+04 1.02252930e+04 1.01309746e+04 1.07682148e+04 1.13377090e+04 1.11050400e+04 1.06062109e+04 1.05122070e+04 1.10386514e+04 1.10846680e+04 1.08705703e+04 1.11471719e+04 1.08761221e+04 1.05122969e+04 1.09206689e+04
    2.05800488e+03 2.03950513e+03 2.07789160e+03 2.16449829e+03 2.18604004e+03 2.28051514e+03 2.30275220e+03 2.27088892e+03 2.32723315e+03 2.35520605e+03 2.43330713e+03 2.48443140e+03 2.42677173e+03 2.45696289e+03 2.61802588e+03 2.61534985e+03 2.52387598e+03 2.65687866e+03 2.84630347e+03 2.80744458e+03 2.76219971e+03 2.72191821e+03 2.77626636e+03 2.97424316e+03 3.01040723e+03 2.97299438e+03 2.95185767e+03 2.95996191e+03 3.08139014e+03 3.15892456e+03 3.21237256e+03 3.13740723e+03 3.23481274e+03 3.44876953e+03 3.39859448e+03 3.41574365e+03 3.44315796e+03 3.43880469e+03 3.49199512e+03 3.55146729e+03 3.58582104e+03 3.61614771e+03 3.65695068e+03 3.61767017e+03 3.73447217e+03 3.94973267e+03 3.79290552e+03 3.68876172e+03 3.84790210e+03 4.04338159e+03 4.23168750e+03 4.17570996e+03 4.09346045e+03 4.14415283e+03 4.20286133e+03 4.16172168e+03 4.15946484e+03 4.35739062e+03 4.40621240e+03 4.36146045e+03 4.35642871e+03 4.27841309e+03 4.50912988e+03 4.89153516e+03 4.79417676e+03 4.64223389e+03 4.56966162e+03 4.62181152e+03 4.93648926e+03 5.06798926e+03 4.94838818e+03 4.83177051e+03 4.85753467e+03 4.94940771e+03 5.05168457e+03 5.27219727e+03 5.22249756e+03 5.12265576e+03 5.25170117e+03 5.27646289e+03 5.54619189e+03 5.51565430e+03 5.39231738e+03 5.49502783e+03 5.53232422e+03 5.50863867e+03 5.41226270e+03 5.59140381e+03 5.96458105e+03 5.90733350e+03 5.84699805e+03 5.76728564e+03 5.75083496e+03 6.20992969e+03 6.32794287e+03 6.08331787e+03 5.98626953e+03 5.96956006e+03 6.11966162e+03 6.24359863e+03 6.35837109e+03 6.22893701e+03 6.37104590e+03 6.65060840e+03 6.54945801e+03 6.63024658e+03 6.70762109e+03 6.69340967e+03 6.79647559e+03 6.79119287e+03 6.65852930e+03 6.67922852e+03 7.03446436e+03 7.05969775e+03 7.02878125e+03 7.06135449e+03 6.89902637e+03 6.88017676e+03 7.10136816e+03 7.23337207e+03 7.48448584e+03 7.47746924e+03 7.20872363e+03 7.54076660e+03 7.70172461e+03 7.57343213e+03 7.42322363e+03 7.46070752e+03 7.65900537e+03 7.70060645e+03 7.64943018e+03 7.58713574e+03 7.85017139e+03 8.28536426e+03 8.18209424e+03 7.90131885e+03 7.83271777e+03 7.92195068e+03 8.34712402e+03 8.38394043e+03 8.20028516e+03 8.11326074e+03 8.10485840e+03 8.32750195e+03 8.43372949e+03 8.61182129e+03 8.55492188e+03 8.41286621e+03 8.51621777e+03 8.62459277e+03 8.92521777e+03 8.82379688e+03 8.64010547e+03 8.85103613e+03 8.97782812e+03 8.92261816e+03 8.72389355e+03 8.83708398e+03 9.43594336e+03 9.39232031e+03 9.02511230e+03 8.91778223e+03 9.02869141e+03 9.60184082e+03 9.60461328e+03 9.35162012e+03 9.18834766e+03 9.21343750e+03 9.43876953e+03 9.52494824e+03 9.84965234e+03 9.83632422e+03 9.52989453e+03 9.48551465e+03 9.69698438e+03 1.02263818e+04 9.95147852e+03 9.80871582e+03 1.01190674e+04 1.00565605e+04 9.72939844e+03 9.78317188e+03 1.01618984e+04 1.00728115e+04 1.00036523e+04 1.05805215e+04 1.05941680e+04 1.02832832e+04 1.02654180e+04 1.03490684e+04 1.04263955e+04 1.02385479e+04 1.01819414e+04 1.07051748e+04 1.08163340e+04 1.03442979e+04 1.02661465e+04 1.07800352e+04 1.11601641e+04 1.10184619e+04 1.07196709e+04 1.05548809e+04 1.10326865e+04 1.13397900e+04 1.10492080e+04 1.09890908e+04 1.08339238e+04 1.05999189e+04 1.10704346e+04
    2.06039600e+03 2.02731580e+03 2.07306323e+03 2.16972266e+03 2.19785645e+03 2.28964600e+03 2.29493945e+03 2.27438354e+03 2.33988452e+03 2.35685229e+03 2.42688770e+03 2.47712451e+03 2.43642358e+03 2.46989331e+03 2.63657056e+03 2.63115259e+03 2.54027734e+03 2.65724634e+03 2.82702393e+03 2.80798413e+03 2.76254590e+03 2.75011328e+03 2.82193896e+03 2.97625488e+03 2.99466284e+03 2.97621606e+03 2.95278540e+03 2.98923608e+03 3.09997021e+03 3.14593384e+03 3.19860596e+03 3.15849487e+03 3.25680005e+03 3.40584961e+03 3.34287402e+03 3.44217163e+03 3.47669556e+03 3.42759082e+03 3.48236841e+03 3.54581860e+03 3.60445605e+03 3.65223340e+03 3.63877856e+03 3.57559961e+03 3.69633374e+03 3.98614990e+03 3.82364819e+03 3.70595044e+03 3.86400366e+03 4.03100220e+03 4.18364795e+03 4.11975098e+03 4.02770093e+03 4.20951074e+03 4.24363135e+03 4.09369897e+03 4.08577759e+03 4.42801562e+03 4.48460059e+03 4.38227002e+03 4.33856445e+03 4.22375342e+03 4.51585254e+03 4.88449219e+03 4.80448975e+03 4.65014697e+03 4.58333936e+03 4.58165332e+03 4.88794678e+03 5.10992871e+03 4.99033984e+03 4.81363477e+03 4.77915625e+03 4.99392188e+03 5.12216992e+03 5.29073145e+03 5.23337402e+03 5.14267871e+03 5.29074219e+03 5.32728516e+03 5.54550098e+03 5.47195264e+03 5.36065381e+03 5.47893750e+03 5.53057178e+03 5.61223584e+03 5.48826953e+03 5.55740479e+03 6.00896484e+03 5.94959033e+03 5.76225049e+03 5.67074121e+03 5.80507520e+03 6.24597119e+03 6.32513086e+03 6.05500586e+03 5.89478369e+03 5.92275000e+03 6.20160498e+03 6.33399268e+03 6.33479785e+03 6.14536133e+03 6.32822461e+03 6.75748535e+03 6.55564258e+03 6.68320557e+03 6.75904590e+03 6.63724463e+03 6.73876221e+03 6.72547949e+03 6.73094287e+03 6.70034277e+03 6.88106543e+03 6.96554150e+03 7.07306152e+03 7.16087500e+03 6.87066309e+03 6.85468945e+03 7.11612451e+03 7.27539697e+03 7.48313330e+03 7.40430518e+03 7.15940039e+03 7.55633008e+03 7.82238379e+03 7.61954688e+03 7.42486279e+03 7.46910742e+03 7.66611768e+03 7.68070947e+03 7.61050098e+03 7.55236035e+03 7.81829346e+03 8.23491992e+03 8.13857275e+03 7.98000781e+03 7.89901709e+03 7.98101270e+03 8.37783008e+03 8.37141309e+03 8.24135352e+03 8.13419531e+03 8.07112256e+03 8.24693262e+03 8.48732129e+03 8.77671875e+03 8.55112012e+03 8.35707910e+03 8.52725977e+03 8.65053418e+03 8.93332031e+03 8.85353320e+03 8.71233203e+03 8.88638965e+03 8.95269336e+03 8.87657422e+03 8.71836426e+03 8.96920508e+03 9.32250781e+03 9.25395801e+03 9.15642578e+03 9.07425488e+03 9.11030566e+03 9.58024414e+03 9.60996289e+03 9.38154883e+03 9.15251074e+03 9.23031836e+03 9.48704688e+03 9.49105664e+03 9.82387500e+03 9.89472754e+03 9.66573926e+03 9.46762305e+03 9.62449902e+03 1.01395527e+04 9.95269922e+03 9.81600977e+03 1.00357959e+04 9.95376270e+03 9.78829297e+03 9.76367188e+03 1.01743984e+04 1.02659756e+04 1.01207344e+04 1.04214824e+04 1.04753643e+04 1.03470859e+04 1.03766152e+04 1.04354150e+04 1.04145166e+04 1.02170742e+04 1.02372539e+04 1.08061221e+04 1.08474902e+04 1.03900098e+04 1.01484648e+04 1.06361953e+04 1.13360293e+04 1.12228477e+04 1.05992207e+04 1.04182676e+04 1.10880107e+04 1.12707275e+04 1.09675762e+04 1.11891201e+04 1.09094023e+04 1.04828750e+04 1.08993789e+04
    2.09246387e+03 2.05804102e+03 2.08663184e+03 2.16200146e+03 2.19633862e+03 2.28827393e+03 2.30215991e+03 2.28657104e+03 2.32611401e+03 2.34274927e+03 2.45475562e+03 2.50325684e+03 2.43180957e+03 2.47228418e+03 2.62776343e+03 2.65345142e+03 2.56001611e+03 2.64179980e+03 2.79697119e+03 2.81035278e+03 2.79197070e+03 2.73388623e+03 2.78365845e+03 2.97372949e+03 3.00940771e+03 2.97460205e+03 2.95784521e+03 2.97345483e+03 3.07413159e+03 3.15687744e+03 3.19491650e+03 3.12431226e+03 3.24755493e+03 3.40493774e+03 3.34704492e+03 3.46101953e+03 3.48504956e+03 3.43362842e+03 3.50674780e+03 3.55988257e+03 3.60922949e+03 3.62376367e+03 3.57818823e+03 3.53721777e+03 3.72938525e+03 3.98743262e+03 3.80433838e+03 3.66720190e+03 3.84342529e+03 4.03618140e+03 4.26094531e+03 4.16904004e+03 4.04760205e+03 4.20096924e+03 4.23619678e+03 4.11598535e+03 4.13289600e+03 4.41820361e+03 4.43727002e+03 4.33207227e+03 4.35141748e+03 4.29202588e+03 4.50979639e+03 4.86328174e+03 4.80469482e+03 4.68912646e+03 4.59391162e+03 4.58324902e+03 4.89093262e+03 5.07946484e+03 5.00892188e+03 4.88733398e+03 4.90552002e+03 5.00608594e+03 5.02486670e+03 5.24085400e+03 5.19952002e+03 5.09858203e+03 5.25783936e+03 5.31923389e+03 5.59161865e+03 5.55533301e+03 5.36782959e+03 5.50212158e+03 5.53472119e+03 5.62330762e+03 5.54129932e+03 5.51919922e+03 5.88085059e+03 5.88507471e+03 5.80729883e+03 5.73970557e+03 5.78695801e+03 6.21023584e+03 6.29151611e+03 6.10151660e+03 6.00240625e+03 5.97814111e+03 6.16920459e+03 6.27042529e+03 6.31939746e+03 6.20399463e+03 6.33550977e+03 6.63746387e+03 6.49927588e+03 6.70066064e+03 6.81729053e+03 6.60591748e+03 6.71001025e+03 6.76170557e+03 6.82540820e+03 6.85395557e+03 6.89332227e+03 6.94817480e+03 7.06782275e+03 7.10151074e+03 6.87086670e+03 6.90698828e+03 7.13401221e+03 7.29843018e+03 7.54059277e+03 7.41564551e+03 7.21483203e+03 7.48748340e+03 7.67034961e+03 7.58154492e+03 7.58122510e+03 7.62183203e+03 7.55294336e+03 7.61224609e+03 7.75602002e+03 7.74561865e+03 7.81332666e+03 8.13187305e+03 8.11057520e+03 8.02627783e+03 7.95627832e+03 8.00186475e+03 8.31502637e+03 8.31714355e+03 8.34810352e+03 8.16099658e+03 8.03952441e+03 8.21961426e+03 8.51929297e+03 8.78122266e+03 8.60267188e+03 8.39554102e+03 8.50568457e+03 8.67114941e+03 9.02301953e+03 8.86827832e+03 8.66145898e+03 8.70329980e+03 8.79822266e+03 8.99536035e+03 8.81542969e+03 8.87801758e+03 9.33297656e+03 9.24941016e+03 9.18246973e+03 9.00975488e+03 9.02443750e+03 9.61656836e+03 9.65373730e+03 9.34544434e+03 9.14826270e+03 9.23065332e+03 9.44517383e+03 9.54179688e+03 9.89886719e+03 9.91199023e+03 9.64648145e+03 9.45720117e+03 9.61822559e+03 1.01288115e+04 1.00298350e+04 9.87782910e+03 1.00144121e+04 9.87587207e+03 9.80235742e+03 9.86933984e+03 1.01320801e+04 1.01128975e+04 1.01202051e+04 1.05005303e+04 1.05439814e+04 1.03461992e+04 1.03645713e+04 1.03909092e+04 1.04791621e+04 1.01745645e+04 1.01761211e+04 1.08197275e+04 1.08469551e+04 1.03223711e+04 1.02052324e+04 1.07861484e+04 1.12362402e+04 1.10896641e+04 1.06564033e+04 1.04811904e+04 1.10059678e+04 1.12078496e+04 1.10257793e+04 1.11717881e+04 1.08515303e+04 1.03655752e+04 1.08781318e+04
    2.09236279e+03 2.05612280e+03 2.08439771e+03 2.15615747e+03 2.19581104e+03 2.28538623e+03 2.29649512e+03 2.28058716e+03 2.32325732e+03 2.34045532e+03 2.45494482e+03 2.50242798e+03 2.43092065e+03 2.46527246e+03 2.62045435e+03 2.65377637e+03 2.55785840e+03 2.63798877e+03 2.79190332e+03 2.81467041e+03 2.78544409e+03 2.73241113e+03 2.78192944e+03 2.97685522e+03 3.00291138e+03 2.97514355e+03 2.96005640e+03 2.97254736e+03 3.07730566e+03 3.14748950e+03 3.19246021e+03 3.11554688e+03 3.24212744e+03 3.40763794e+03 3.35397461e+03 3.47097778e+03 3.48626685e+03 3.42698804e+03 3.50156348e+03 3.55582324e+03 3.61115991e+03 3.62918921e+03 3.58477832e+03 3.54196753e+03 3.73870630e+03 4.01574756e+03 3.82137451e+03 3.68214233e+03 3.84053223e+03 4.05368286e+03 4.25601123e+03 4.17014893e+03 4.05703418e+03 4.20869531e+03 4.25243945e+03 4.10568213e+03 4.13083691e+03 4.39556348e+03 4.43360938e+03 4.34328564e+03 4.37231445e+03 4.32282666e+03 4.51463086e+03 4.86314404e+03 4.81504785e+03 4.66508008e+03 4.58802002e+03 4.59080518e+03 4.89372461e+03 5.11448389e+03 5.02203760e+03 4.90126025e+03 4.92645459e+03 5.02736035e+03 5.05163867e+03 5.24796484e+03 5.19422852e+03 5.12067090e+03 5.23979688e+03 5.27813916e+03 5.61715039e+03 5.56582812e+03 5.37868750e+03 5.51287988e+03 5.51677539e+03 5.63372070e+03 5.52511182e+03 5.52872607e+03 5.90846338e+03 5.90593506e+03 5.80654053e+03 5.73884180e+03 5.77614111e+03 6.22637646e+03 6.30245020e+03 6.12378516e+03 6.00491699e+03 5.96340234e+03 6.18436133e+03 6.24303467e+03 6.31288477e+03 6.19756836e+03 6.32673389e+03 6.66167871e+03 6.52283691e+03 6.67137744e+03 6.75813916e+03 6.58899707e+03 6.72687207e+03 6.80784277e+03 6.80354248e+03 6.85439453e+03 6.88597412e+03 6.90309082e+03 7.04463721e+03 7.14389941e+03 6.88295068e+03 6.88421582e+03 7.11048730e+03 7.28824902e+03 7.48732520e+03 7.40771729e+03 7.22050928e+03 7.44131494e+03 7.65418896e+03 7.58280469e+03 7.61069141e+03 7.64091211e+03 7.55493262e+03 7.58214600e+03 7.76247412e+03 7.71868994e+03 7.82785352e+03 8.10635303e+03 8.10731348e+03 8.04683984e+03 7.94319873e+03 7.94092822e+03 8.27321582e+03 8.37051465e+03 8.35085352e+03 8.17532080e+03 8.00137793e+03 8.23560840e+03 8.49873242e+03 8.75606348e+03 8.56368945e+03 8.39320703e+03 8.49399414e+03 8.64595605e+03 9.02708203e+03 8.87195605e+03 8.69584961e+03 8.68102930e+03 8.80667188e+03 8.96840820e+03 8.81996777e+03 8.91816113e+03 9.34995996e+03 9.28074023e+03 9.17703125e+03 8.97075781e+03 9.05419336e+03 9.63557129e+03 9.65087988e+03 9.34585742e+03 9.15367578e+03 9.26983594e+03 9.46156641e+03 9.59817578e+03 9.85896875e+03 9.93141016e+03 9.62305957e+03 9.45058691e+03 9.64390430e+03 1.00977256e+04 1.00453721e+04 9.92685059e+03 1.00123604e+04 9.88986426e+03 9.79496387e+03 9.83773438e+03 1.01219111e+04 1.01253506e+04 1.01093145e+04 1.05213848e+04 1.05272402e+04 1.03460322e+04 1.03459160e+04 1.03903242e+04 1.04634854e+04 1.01874287e+04 1.02067920e+04 1.08072070e+04 1.08331875e+04 1.03069287e+04 1.02104316e+04 1.07943486e+04 1.12288965e+04 1.10649033e+04 1.06343682e+04 1.05153213e+04 1.10120889e+04 1.11954502e+04 1.10173984e+04 1.11804160e+04 1.08550938e+04 1.03831104e+04 1.08928340e+04
    2.08805420e+03 2.05880884e+03 2.08575610e+03 2.15602222e+03 2.19370605e+03 2.29131494e+03 2.29938403e+03 2.28152246e+03 2.32146265e+03 2.34619507e+03 2.45780298e+03 2.50029224e+03 2.43624243e+03 2.46945020e+03 2.62886621e+03 2.65593433e+03 2.56122046e+03 2.64491016e+03 2.79324927e+03 2.81808398e+03 2.79231201e+03 2.73827051e+03 2.78696680e+03 2.97526294e+03 3.01124976e+03 2.98064600e+03 2.96132422e+03 2.97727197e+03 3.08811353e+03 3.15962451e+03 3.19686670e+03 3.12208521e+03 3.24502832e+03 3.41470215e+03 3.35702490e+03 3.47817822e+03 3.48122192e+03 3.43179321e+03 3.51052881e+03 3.56694043e+03 3.60736401e+03 3.61968945e+03 3.57542236e+03 3.55381616e+03 3.73083789e+03 4.01040625e+03 3.80001147e+03 3.68296997e+03 3.85197290e+03 4.04253198e+03 4.26785645e+03 4.16402100e+03 4.07245605e+03 4.20810498e+03 4.23892822e+03 4.11345068e+03 4.13454541e+03 4.41329199e+03 4.43186621e+03 4.33815723e+03 4.36713818e+03 4.31727734e+03 4.50402588e+03 4.85485547e+03 4.80656934e+03 4.66322754e+03 4.60545215e+03 4.58359717e+03 4.87382031e+03 5.09423340e+03 5.02440479e+03 4.88910791e+03 4.92022461e+03 5.00287256e+03 5.04768896e+03 5.25480713e+03 5.21071338e+03 5.13795361e+03 5.26842627e+03 5.29709375e+03 5.61507812e+03 5.55703809e+03 5.37366357e+03 5.52254004e+03 5.54095703e+03 5.61318750e+03 5.53625000e+03 5.52449463e+03 5.87620654e+03 5.90840381e+03 5.83268408e+03 5.74841455e+03 5.80215576e+03 6.25700879e+03 6.30730566e+03 6.14187256e+03 6.00552637e+03 5.98426953e+03 6.16284863e+03 6.25706104e+03 6.32871191e+03 6.19811914e+03 6.37297168e+03 6.63853320e+03 6.48807959e+03 6.73713672e+03 6.75194434e+03 6.56200049e+03 6.72227100e+03 6.78244385e+03 6.83601025e+03 6.87613086e+03 6.89567480e+03 6.92933838e+03 7.07764990e+03 7.16902881e+03 6.88102734e+03 6.89509668e+03 7.14985205e+03 7.28880127e+03 7.54304492e+03 7.42848291e+03 7.23879541e+03 7.47472314e+03 7.66478711e+03 7.57472998e+03 7.58616943e+03 7.62783154e+03 7.55328809e+03 7.59457373e+03 7.76926318e+03 7.73171338e+03 7.80408936e+03 8.16059863e+03 8.12340088e+03 8.01733789e+03 7.94069287e+03 7.95853613e+03 8.30173828e+03 8.35335059e+03 8.37205859e+03 8.20860449e+03 8.02764697e+03 8.21808984e+03 8.51643457e+03 8.81403418e+03 8.55933984e+03 8.40491699e+03 8.49412793e+03 8.68043945e+03 9.01058691e+03 8.87568652e+03 8.70718945e+03 8.71944043e+03 8.81108984e+03 8.98233691e+03 8.84033398e+03 8.93163965e+03 9.34545312e+03 9.30392676e+03 9.15831836e+03 9.01389160e+03 9.03391699e+03 9.64185449e+03 9.66162793e+03 9.32279199e+03 9.15279590e+03 9.23060742e+03 9.46281836e+03 9.60058203e+03 9.91658887e+03 9.92301074e+03 9.68288477e+03 9.46420996e+03 9.62485352e+03 1.01579736e+04 1.00638037e+04 9.97654395e+03 1.00012959e+04 9.87147656e+03 9.81027344e+03 9.84773730e+03 1.01265010e+04 1.01365752e+04 1.01003506e+04 1.05341729e+04 1.05445928e+04 1.03505791e+04 1.03637549e+04 1.04134688e+04 1.04921719e+04 1.01779990e+04 1.02171377e+04 1.08255840e+04 1.08381680e+04 1.03276055e+04 1.02243691e+04 1.08030078e+04 1.12832207e+04 1.10875488e+04 1.06357148e+04 1.05207256e+04 1.10062715e+04 1.12223682e+04 1.10379688e+04 1.11915010e+04 1.08578193e+04 1.04038965e+04 1.08868213e+04
    2.08978491e+03 2.04557288e+03 2.08265283e+03 2.16785400e+03 2.20200952e+03 2.29219312e+03 2.28458789e+03 2.27361865e+03 2.35633008e+03 2.36925854e+03 2.45602490e+03 2.51198877e+03 2.43280273e+03 2.46850024e+03 2.64005908e+03 2.63515430e+03 2.56329468e+03 2.67227368e+03 2.82087671e+03 2.82077148e+03 2.77780493e+03 2.76481250e+03 2.82520776e+03 2.97942456e+03 2.98867334e+03 2.98128931e+03 2.97553418e+03 3.01824854e+03 3.12088916e+03 3.15660620e+03 3.20550317e+03 3.16611011e+03 3.25845532e+03 3.38275293e+03 3.34146338e+03 3.48210059e+03 3.48080176e+03 3.40502441e+03 3.50418311e+03 3.55318433e+03 3.62003125e+03 3.65937695e+03 3.62469067e+03 3.57200635e+03 3.74633960e+03 4.04346045e+03 3.83461792e+03 3.64657080e+03 3.80036548e+03 4.08446826e+03 4.29265430e+03 4.14691650e+03 4.05783081e+03 4.24135840e+03 4.29520605e+03 4.11030713e+03 4.07661621e+03 4.41502197e+03 4.47876416e+03 4.35230518e+03 4.40315576e+03 4.30325146e+03 4.50551074e+03 4.86478955e+03 4.79013184e+03 4.68850488e+03 4.60614697e+03 4.59457959e+03 4.87309375e+03 5.14372412e+03 5.05017188e+03 4.88322803e+03 4.89235205e+03 5.04854297e+03 5.07446045e+03 5.26506641e+03 5.17944092e+03 5.08551904e+03 5.33746924e+03 5.36725781e+03 5.62855127e+03 5.50949463e+03 5.27700244e+03 5.53894775e+03 5.61793799e+03 5.63015625e+03 5.47360205e+03 5.56504688e+03 5.99817822e+03 5.97585938e+03 5.73339307e+03 5.67673389e+03 5.87015430e+03 6.33662744e+03 6.33597607e+03 6.11247803e+03 5.90355859e+03 5.95776904e+03 6.27067139e+03 6.33806006e+03 6.33343994e+03 6.16288672e+03 6.38093604e+03 6.70224805e+03 6.45427783e+03 6.71623535e+03 6.82950049e+03 6.65712988e+03 6.78790479e+03 6.79839062e+03 6.73921924e+03 6.78629785e+03 6.84588135e+03 6.90880908e+03 7.13243506e+03 7.12969092e+03 6.76559912e+03 6.91233789e+03 7.17418896e+03 7.34745850e+03 7.59237842e+03 7.41645312e+03 7.11399414e+03 7.48497461e+03 7.90580029e+03 7.69718018e+03 7.50647852e+03 7.48846094e+03 7.61773389e+03 7.71453467e+03 7.72103125e+03 7.68215332e+03 7.85559521e+03 8.13925928e+03 8.09844287e+03 8.01569775e+03 7.92402100e+03 7.97645557e+03 8.41385840e+03 8.46646973e+03 8.38039160e+03 8.20309863e+03 8.01460254e+03 8.17359814e+03 8.60073047e+03 8.89383398e+03 8.52295020e+03 8.35164746e+03 8.58782617e+03 8.74966211e+03 9.03834961e+03 8.91207812e+03 8.68098926e+03 8.85923047e+03 8.93162305e+03 8.95795312e+03 8.82508203e+03 8.93586719e+03 9.31046875e+03 9.30857422e+03 9.21029297e+03 9.01698340e+03 9.14261621e+03 9.71901660e+03 9.66953906e+03 9.33496094e+03 9.18439746e+03 9.26927637e+03 9.50980176e+03 9.50956445e+03 9.89061621e+03 1.00382588e+04 9.59079590e+03 9.44004102e+03 9.72446777e+03 1.01660771e+04 9.99196289e+03 9.98555273e+03 1.00356006e+04 9.85998242e+03 9.76010449e+03 9.70408496e+03 1.01512188e+04 1.04071396e+04 1.02062666e+04 1.03680840e+04 1.04237520e+04 1.05008242e+04 1.05271465e+04 1.04949863e+04 1.04532676e+04 1.02060996e+04 1.02467793e+04 1.07229834e+04 1.08960342e+04 1.05247451e+04 1.02709404e+04 1.06614951e+04 1.12959043e+04 1.12127461e+04 1.06424062e+04 1.04487705e+04 1.11067344e+04 1.14304365e+04 1.11154668e+04 1.12334941e+04 1.09227461e+04 1.03950352e+04 1.08644922e+04
    2.11831226e+03 2.05968188e+03 2.09699487e+03 2.18341797e+03 2.22350439e+03 2.31180005e+03 2.30208154e+03 2.28731616e+03 2.34586572e+03 2.36743994e+03 2.46067212e+03 2.51406616e+03 2.45555591e+03 2.49379468e+03 2.65533789e+03 2.67540088e+03 2.59590698e+03 2.65304224e+03 2.79168384e+03 2.83009302e+03 2.80287793e+03 2.78019604e+03 2.84634009e+03 2.98735522e+03 3.00636987e+03 2.99103516e+03 2.98138525e+03 3.01202271e+03 3.12403564e+03 3.17556543e+03 3.20616943e+03 3.16298950e+03 3.28038550e+03 3.40932129e+03 3.34263477e+03 3.51488623e+03 3.53713428e+03 3.43326489e+03 3.50896338e+03 3.59117578e+03 3.63971118e+03 3.66692090e+03 3.59068799e+03 3.53984473e+03 3.73346509e+03 4.05441455e+03 3.88039062e+03 3.73331055e+03 3.88308252e+03 4.06245459e+03 4.25247070e+03 4.13483545e+03 4.05138965e+03 4.32326123e+03 4.34592920e+03 4.11209863e+03 4.09209619e+03 4.47459717e+03 4.56992822e+03 4.40387158e+03 4.35153564e+03 4.27687158e+03 4.50629688e+03 4.92399805e+03 4.84375391e+03 4.73419385e+03 4.64946143e+03 4.53562061e+03 4.83193066e+03 5.16340479e+03 5.07407812e+03 4.90943359e+03 4.89469238e+03 5.09126562e+03 5.12317969e+03 5.29130518e+03 5.22182178e+03 5.13683740e+03 5.34212939e+03 5.40397412e+03 5.64333447e+03 5.58510742e+03 5.38744385e+03 5.49012012e+03 5.55198145e+03 5.73750928e+03 5.62219678e+03 5.60087988e+03 6.00646191e+03 5.98260693e+03 5.75452344e+03 5.71376270e+03 5.86528223e+03 6.33034180e+03 6.38429004e+03 6.14033740e+03 5.95318457e+03 5.97607617e+03 6.31560352e+03 6.34799365e+03 6.31733252e+03 6.12398438e+03 6.36440820e+03 6.78486426e+03 6.54462207e+03 6.77029541e+03 6.88977344e+03 6.66782568e+03 6.64885742e+03 6.73436768e+03 6.95225293e+03 6.89928369e+03 6.78382861e+03 6.83091748e+03 7.13845801e+03 7.23715771e+03 6.86412061e+03 6.91073242e+03 7.21551074e+03 7.40661182e+03 7.62632715e+03 7.42429785e+03 7.20545068e+03 7.52819385e+03 7.84412109e+03 7.72702783e+03 7.69920898e+03 7.55974609e+03 7.52065332e+03 7.76712305e+03 7.82792773e+03 7.73887842e+03 7.84746191e+03 8.16111035e+03 8.10959863e+03 8.14614795e+03 8.06939844e+03 8.03596533e+03 8.36611035e+03 8.47808887e+03 8.40753711e+03 8.21098633e+03 8.06111865e+03 8.22370801e+03 8.63450684e+03 8.93556445e+03 8.61566309e+03 8.37417383e+03 8.60333691e+03 8.72403125e+03 9.02963672e+03 9.01004883e+03 8.76899023e+03 8.77548242e+03 8.79212988e+03 9.04753418e+03 8.87765527e+03 9.05222363e+03 9.36417969e+03 9.21390820e+03 9.28518066e+03 9.17070410e+03 9.21363672e+03 9.75165332e+03 9.71132910e+03 9.38196973e+03 9.17682129e+03 9.27892285e+03 9.57503516e+03 9.57582129e+03 9.93815430e+03 1.00989102e+04 9.79948828e+03 9.48817578e+03 9.58648633e+03 1.02355928e+04 1.00617354e+04 9.97897949e+03 9.95317773e+03 9.86709473e+03 9.90774219e+03 9.93254004e+03 1.02117559e+04 1.03923164e+04 1.02624541e+04 1.04127246e+04 1.04519736e+04 1.04961875e+04 1.05909375e+04 1.06410098e+04 1.05119326e+04 1.01683154e+04 1.02535771e+04 1.09190303e+04 1.09190654e+04 1.04210605e+04 1.01377646e+04 1.07302275e+04 1.16348418e+04 1.13927734e+04 1.06505186e+04 1.04592510e+04 1.09948203e+04 1.12294893e+04 1.11310713e+04 1.15315889e+04 1.09184941e+04 1.02320752e+04 1.07902070e+04
    2.12484351e+03 2.07648584e+03 2.11979053e+03 2.20198486e+03 2.22877148e+03 2.32761206e+03 2.31297583e+03 2.30575781e+03 2.39623828e+03 2.39598096e+03 2.48709253e+03 2.54902246e+03 2.47500806e+03 2.51317334e+03 2.66411157e+03 2.66972681e+03 2.60862695e+03 2.70947412e+03 2.86237354e+03 2.86199414e+03 2.81069946e+03 2.79700659e+03 2.86855640e+03 3.01190112e+03 3.02239038e+03 3.03182861e+03 3.02375635e+03 3.05644702e+03 3.17843286e+03 3.20289404e+03 3.23370508e+03 3.20029395e+03 3.29943530e+03 3.45127417e+03 3.40202832e+03 3.51398291e+03 3.51464404e+03 3.45507715e+03 3.56630518e+03 3.61887231e+03 3.67296387e+03 3.70498560e+03 3.66422021e+03 3.62238989e+03 3.78465234e+03 4.08827539e+03 3.91240942e+03 3.71346069e+03 3.87811572e+03 4.13378320e+03 4.31997900e+03 4.20771191e+03 4.12635547e+03 4.29838232e+03 4.34116797e+03 4.16115186e+03 4.11523486e+03 4.51742773e+03 4.58224121e+03 4.40487500e+03 4.45444824e+03 4.36661670e+03 4.57047412e+03 4.89580713e+03 4.84023682e+03 4.75604980e+03 4.68018652e+03 4.65204834e+03 4.95700439e+03 5.21815527e+03 5.11684863e+03 4.94129834e+03 4.95656104e+03 5.12218848e+03 5.17181006e+03 5.36985059e+03 5.26245410e+03 5.15023096e+03 5.37425146e+03 5.43584033e+03 5.74282373e+03 5.57439307e+03 5.36318066e+03 5.63737500e+03 5.73040039e+03 5.72831982e+03 5.56466846e+03 5.63699316e+03 6.08811865e+03 6.04785449e+03 5.83955615e+03 5.75680908e+03 5.99265918e+03 6.43935059e+03 6.40047607e+03 6.20435986e+03 6.01266113e+03 6.00492529e+03 6.30273633e+03 6.44391895e+03 6.43537988e+03 6.24780762e+03 6.43985645e+03 6.78146777e+03 6.54916895e+03 6.78791211e+03 6.92956006e+03 6.75202490e+03 6.86712793e+03 6.93178809e+03 6.84742529e+03 6.83226221e+03 6.96333203e+03 6.98926953e+03 7.20507471e+03 7.20702002e+03 6.86575488e+03 7.00878076e+03 7.32389746e+03 7.53265479e+03 7.60838965e+03 7.50266602e+03 7.37785840e+03 7.63720068e+03 7.90110205e+03 7.77478174e+03 7.74570117e+03 7.51507715e+03 7.59770898e+03 7.95043701e+03 7.89359424e+03 7.76362061e+03 7.93097168e+03 8.28890430e+03 8.22860547e+03 8.13614062e+03 7.97515625e+03 8.11435791e+03 8.58510547e+03 8.63651074e+03 8.44249023e+03 8.24916992e+03 8.06363428e+03 8.23401465e+03 8.75183887e+03 9.22207812e+03 8.78530566e+03 8.35093848e+03 8.53572168e+03 8.75386230e+03 9.25679492e+03 9.06815039e+03 8.77770996e+03 9.01098438e+03 9.00663965e+03 9.05111230e+03 9.01625781e+03 9130. 9.39208301e+03 9.42860547e+03 9.39348828e+03 9.19604004e+03 9.36010547e+03 9.87306250e+03 9.98974414e+03 9.68517480e+03 9.17307031e+03 9.39264355e+03 9.62923047e+03 9.49880859e+03 1.00619570e+04 1.01024824e+04 9.72063965e+03 9.70751172e+03 1.01195273e+04 1.03297373e+04 9.88751074e+03 9.82134277e+03 1.00503115e+04 1.03280986e+04 1.00015322e+04 9.85233105e+03 1.03152305e+04 1.07482559e+04 1.05443857e+04 1.02027939e+04 1.08301621e+04 1.10635791e+04 1.01490322e+04 1.01286738e+04 1.05420781e+04 9.94393359e+03 1.05076016e+04 1.11952949e+04 1.01861846e+04 1.02037441e+04 1.09341084e+04 1.11731064e+04 1.15502373e+04 1.16931162e+04 1.06249658e+04 1.03747646e+04 1.14369189e+04 1.18174033e+04 1.12183740e+04 1.15524541e+04 1.09986436e+04 1.02099043e+04 1.08378418e+04</data></ring32_4>
</opencv_storage>
