<?xml version="1.0"?>
<opencv_storage>
<ring16_0 type_id="opencv-matrix">
  <rows>16</rows>
  <cols>208</cols>
  <dt>f</dt>
  <data>
    4.02789345e+01 4.46799507e+01 4.65904312e+01 4.89121590e+01 5.48334694e+01 6.14244690e+01 6.62679901e+01 7.31827698e+01 8.02870483e+01 8.32253342e+01 9.16515656e+01 1.01406410e+02 1.02773422e+02 1.11777725e+02 1.24948227e+02 1.33798721e+02 1.45739426e+02 1.57661713e+02 1.58169769e+02 1.60145432e+02 1.78942383e+02 1.96494995e+02 1.96770844e+02 2.06383759e+02 2.24321136e+02 2.40398880e+02 2.60956116e+02 2.63004303e+02 2.61052795e+02 2.80689362e+02 3.02235535e+02 3.15655518e+02 3.30196075e+02 3.43299866e+02 3.58028412e+02 3.84507355e+02 4.13124481e+02 4.09518677e+02 4.01042908e+02 4.25935211e+02 4.56113251e+02 4.82707550e+02 5.18343201e+02 5.19471924e+02 5.05185577e+02 5.46880981e+02 5.86827942e+02 5.72216064e+02 5.87848633e+02 6.26736328e+02 6.63518982e+02 7.09805237e+02 7.00059265e+02 6.75875488e+02 7.12663147e+02 7.79261597e+02 8.03946777e+02 7.82323425e+02 8.18205566e+02 8.69690369e+02 8.75861450e+02 9.18548401e+02 9.19331970e+02 8.96553772e+02 9.47374268e+02 1.00380255e+03 1.02531592e+03 1.06836572e+03 1.09577380e+03 1.06953674e+03 1.12161926e+03 1.17906042e+03 1.14437646e+03 1.17476099e+03 1.23827759e+03 1.27234314e+03 1.32790649e+03 1.37571472e+03 1.34157275e+03 1.30471289e+03 1.40086658e+03 1.47050208e+03 1.42303735e+03 1.47243848e+03 1.54782666e+03 1.58675806e+03 1.65930762e+03 1.61321765e+03 1.55742004e+03 1.62461023e+03 1.70351367e+03 1.75728516e+03 1.80622424e+03 1.81027795e+03 1.80350293e+03 1.91817163e+03 2.04558887e+03 1.92640564e+03 1.84122607e+03 1.94939954e+03 2.04547815e+03 2.11685107e+03 2.22750439e+03 2.15341602e+03 2.04326501e+03 2.20763940e+03 2.34196094e+03 2.21625146e+03 2.43890503e+03 3.07441113e+03 2.37502441e+03 3.06539453e+03 5.19445557e+03 13823820. -3.89004650e+06 0. 0. 0. 0. 0. 0. 0. 0. 0. 0. 0. 0. 0. 0. 0. 0. 0. 0. 0. 0. 0. 0. 0. 0. 0. 0. 0. 0. 0. 0. 0. 0. 0. 0. 0. 0. 0. 0. 0. 0. 0. 0. 0. 0. 0. 0. 0. 0. 0. 0. 0. 0. 0. 0. 0. 0. 0. 0. 0. 0. 0. 0. 0. 0. 0. 0. 0. 0. 0. 0. 0. 0. 0. 0. 0. 0. 0. 0. 0. 0. 0. 0. 0. 0. -15675724. -4430857. -8.32330562e+05 38285220. 8.34689050e+06 -1432132. -1.89578112e+06 -1.39317712e+06 -1.24742375e+06
    2.42807732e+01 2.87209682e+01 3.09481201e+01 3.33117371e+01 3.89344101e+01 4.53267899e+01 5.03660431e+01 5.74687843e+01 6.43260422e+01 6.70380249e+01 7.58241501e+01 8.55779343e+01 8.65343475e+01 9.44709396e+01 1.06778038e+02 1.15915688e+02 1.28636368e+02 1.40579422e+02 1.41065231e+02 1.43321030e+02 1.63279861e+02 1.80758560e+02 1.79096542e+02 1.88901398e+02 2.07941254e+02 2.25332336e+02 2.46311584e+02 2.45286041e+02 2.41641632e+02 2.63138306e+02 2.86249237e+02 2.99294312e+02 3.13927032e+02 3.27329865e+02 3.42052094e+02 3.68723969e+02 3.98054993e+02 3.93519531e+02 3.84610382e+02 4.08662781e+02 4.38228912e+02 4.66197876e+02 5.01409546e+02 5.02853424e+02 4.90853119e+02 5.28501648e+02 5.67260437e+02 5.53933899e+02 5.68901062e+02 6.06463013e+02 6.45110657e+02 6.91164429e+02 6.78947083e+02 6.56063599e+02 6.93526733e+02 7.60033752e+02 7.83763916e+02 7.61796021e+02 8.02289734e+02 8.53615845e+02 8.52944153e+02 8.98905579e+02 9.00883545e+02 8.78341125e+02 9.28760193e+02 9.83101685e+02 1.00456818e+03 1.04481201e+03 1.06986670e+03 1.04899988e+03 1.10310950e+03 1.16383191e+03 1.12917700e+03 1.15641064e+03 1.21635059e+03 1.24765283e+03 1.30449268e+03 1.35819568e+03 1.32317456e+03 1.28832617e+03 1.38399048e+03 1.44897632e+03 1.40615479e+03 1.45379529e+03 1.52432397e+03 1.56015601e+03 1.63882495e+03 1.59486060e+03 1.53537012e+03 1.60526343e+03 1.68880225e+03 1.72997559e+03 1.77696838e+03 1.78772083e+03 1.79019775e+03 1.90003601e+03 2.02021008e+03 1.90391846e+03 1.83215259e+03 1.93413965e+03 2.02051013e+03 2.10339185e+03 2.21391650e+03 2.12848218e+03 2.01683203e+03 2.18434058e+03 2.31846484e+03 2.20597705e+03 2.40191602e+03 2.79093970e+03 2.29871411e+03 2.24710107e+03 2.63698267e+03 6.19880957e+03 7.43847168e+03 4.36449850e+06 -1505249152. -4.03982750e+06 -5.07592750e+06 -6580425. 78390760. 0. 0. 0. 0. 0. 0. 0. 0. 0. 0. 0. 0. 0. 0. 0. 0. 0. 0. 0. 0. 0. 0. 0. 0. 0. 0. 0. 0. 0. 0. 0. 0. 0. 0. 0. 0. 0. 0. 0. 0. 0. 0. 0. 0. 0. 0. 0. 0. 0. 0. 0. 0. 0. 0. 0. 0. 0. 0. 0. 0. 0. 0. 0. 0. 0. 0. 0. 0. 0. 0. 0. -13962452. -2.43732550e+06 -16040892. 27265900. -23385260. 2099228. -18823698. 1.74733320e+04 1.62284873e+04 1.11320049e+04 1.04457979e+04 1.02277910e+04 9.67780566e+03 9.74706934e+03 1.06888682e+04 1.06897080e+04
    2.25808029e+01 2.70133972e+01 2.94165916e+01 3.17878132e+01 3.71906700e+01 4.31536331e+01 4.76890717e+01 5.48536263e+01 6.17375259e+01 6.43329086e+01 7.33314743e+01 8.24082336e+01 8.33739014e+01 9.11933136e+01 1.02717598e+02 1.11964409e+02 1.24610641e+02 1.35910965e+02 1.35914841e+02 1.38627731e+02 1.59491928e+02 1.76104065e+02 1.73977493e+02 1.84111313e+02 2.01141739e+02 2.18179581e+02 2.39397049e+02 2.37540710e+02 2.34458710e+02 2.56684265e+02 2.80180878e+02 2.92968750e+02 3.05587677e+02 3.18532745e+02 3.33691315e+02 3.61086914e+02 3.89744019e+02 3.84440887e+02 3.77712067e+02 4.03617859e+02 4.30849457e+02 4.56075867e+02 4.91184662e+02 4.92122681e+02 4.78018005e+02 5.20258362e+02 5.60010132e+02 5.42582092e+02 5.58482117e+02 5.96265442e+02 6.32050049e+02 6.74191528e+02 6.58570862e+02 6.40190613e+02 6.82677612e+02 7.49349609e+02 7.69754517e+02 7.44962585e+02 7.86664001e+02 8.36463989e+02 8.36024841e+02 8.80401001e+02 8.83332336e+02 8.61301453e+02 9.10707703e+02 9.64301453e+02 9.84780457e+02 1.02899170e+03 1.05980627e+03 1.03926587e+03 1.08796289e+03 1.14425574e+03 1.11371631e+03 1.13795764e+03 1.19538123e+03 1.22544080e+03 1.28606812e+03 1.34126013e+03 1.30346497e+03 1.27263464e+03 1.36521399e+03 1.42727795e+03 1.38736792e+03 1.43334790e+03 1.50252417e+03 1.54817310e+03 1.62051648e+03 1.57636975e+03 1.51899170e+03 1.58404114e+03 1.65950073e+03 1.69953906e+03 1.75441248e+03 1.77532178e+03 1.77503015e+03 1.86460425e+03 1.95735706e+03 1.88134998e+03 1.83725818e+03 1.92867126e+03 1.99918506e+03 2.08002368e+03 2.17352612e+03 2.08951221e+03 2.00287708e+03 2.17169189e+03 2.28792139e+03 2.18078589e+03 2.29306665e+03 2.54898340e+03 2.41698877e+03 3.13218994e+03 3.59789648e+03 3.69960815e+03 3.74655151e+03 3.62380396e+03 3.62876196e+03 4.09613525e+03 4.50791895e+03 6.21840723e+03 6.87679346e+03 12856206. 3.26007975e+06 4.26387950e+06 13417115. 5392621. 2.46371450e+06 31710872. 0. 0. 0. 0. 0. 0. 0. 0. 0. 0. 0. 0. 0. 0. 0. 0. 0. 0. 0. 0. 0. 0. 0. 0. 0. 0. 0. 0. 0. 0. 0. 0. 0. 0. 0. 0. 0. 0. 0. 0. 0. 0. 0. 0. 0. 0. 0. 0. 0. 0. 0. 0. 0. 0. 0. 0. 0. 0. 0. -38329628. -7783215. -2.12139450e+06 -2.28528550e+06 -20933386. 1.70259102e+04 1.52363164e+04 1.04770771e+04 9.41957422e+03 9.59310742e+03 9.54662598e+03 9.15787695e+03 7.66349756e+03 8.24784766e+03 7.02761865e+03 6.81259424e+03 6.75300586e+03 6.39941309e+03 6.45782227e+03 6.95343799e+03 6.97813232e+03
    2.09104843e+01 2.51524048e+01 2.79008865e+01 3.07315350e+01 3.60950966e+01 4.18188248e+01 4.65568657e+01 5.35591469e+01 5.99871902e+01 6.29821396e+01 7.16448669e+01 8.07775421e+01 8.31022034e+01 9.04879684e+01 1.00689423e+02 1.09243683e+02 1.21589149e+02 1.33147156e+02 1.34307983e+02 1.37087692e+02 1.56376541e+02 1.71367188e+02 1.70178314e+02 1.81192139e+02 1.97965347e+02 2.15509872e+02 2.35884003e+02 2.32374069e+02 2.29606918e+02 2.51729523e+02 2.73633240e+02 2.85599976e+02 2.97632446e+02 3.11167084e+02 3.27030060e+02 3.54951965e+02 3.84104706e+02 3.76122009e+02 3.67487213e+02 3.96564087e+02 4.26711975e+02 4.49020691e+02 4.79463226e+02 4.80793457e+02 4.70941559e+02 5.12195801e+02 5.48888123e+02 5.31886169e+02 5.50918579e+02 5.88009644e+02 6.23792480e+02 6.65596680e+02 6.47788025e+02 6.30680664e+02 6.73982666e+02 7.41001465e+02 7.57998169e+02 7.32280762e+02 7.75883423e+02 8.26016724e+02 8.24387512e+02 8.66280823e+02 8.70006775e+02 8.53320862e+02 9.00382324e+02 9.44608215e+02 9.66512146e+02 1.01471893e+03 1.04346045e+03 1.02071661e+03 1.07036206e+03 1.13100769e+03 1.09774683e+03 1.12223950e+03 1.17583594e+03 1.20548035e+03 1.26957019e+03 1.32813599e+03 1.28828674e+03 1.25576208e+03 1.34810950e+03 1.41286658e+03 1.37456177e+03 1.42010120e+03 1.48326501e+03 1.52261768e+03 1.59083386e+03 1.56122375e+03 1.51138928e+03 1.57029724e+03 1.64331213e+03 1.68463062e+03 1.73525720e+03 1.76207397e+03 1.75850439e+03 1.83858252e+03 1.92159949e+03 1.86446069e+03 1.82871448e+03 1.89989734e+03 1.97315137e+03 2.06385840e+03 2.15041772e+03 2.06631616e+03 1.99741138e+03 2.15352026e+03 2.25065942e+03 2.15592773e+03 2.24748975e+03 2.34166528e+03 2.31050391e+03 2.43585693e+03 2.48121973e+03 2.39041895e+03 2.45313159e+03 2.43603833e+03 2.45153687e+03 2.66375000e+03 2.88971436e+03 3.44898999e+03 3.11366260e+03 3.88012622e+03 4.89357617e+03 5.19324121e+03 7.07295703e+03 1.17676211e+04 2.46371450e+06 31710872. 0. 0. 0. 0. 0. 0. 0. 0. 0. 0. 0. 0. 0. 0. 0. 0. 0. 0. 0. 0. 0. 0. 0. 0. 0. 0. 0. 0. 0. 0. 0. 0. 0. 0. 0. 0. 0. 0. 0. 0. 0. 0. 0. 0. 0. 0. 0. 0. 0. 91985696. -770054720. -4.26216750e+06 380616672. 6248291. -2.63556675e+06 -6258242. -13205930. -60268500. -18411576. 1.73882266e+04 1.39973271e+04 9.21995898e+03 8.94637109e+03 8.78140234e+03 7.46819922e+03 7.77787598e+03 6.57895654e+03 6.17230713e+03 6.30611572e+03 6.34533154e+03 6.07554199e+03 6.10734766e+03 6.29985254e+03 6.33984375e+03 6.53117920e+03 6.58195850e+03 6.35765967e+03 6.40393018e+03 6.69421143e+03 6.73140088e+03
    1.94704647e+01 2.35502605e+01 2.64454823e+01 2.95216427e+01 3.48215408e+01 4.02578049e+01 4.51922455e+01 5.21913795e+01 5.84452705e+01 6.17524643e+01 7.01644287e+01 7.86409760e+01 8.14461975e+01 8.92680435e+01 9.94718323e+01 1.07748924e+02 1.19680290e+02 1.31252975e+02 1.33955002e+02 1.37724503e+02 1.54382828e+02 1.67388885e+02 1.69674530e+02 1.81843750e+02 1.97358154e+02 2.13700699e+02 2.31918823e+02 2.30957199e+02 2.30590714e+02 2.50388870e+02 2.70373505e+02 2.82294098e+02 2.94267792e+02 3.08049652e+02 3.24062866e+02 3.50156769e+02 3.77638458e+02 3.70324158e+02 3.62555267e+02 3.92111328e+02 4.21870026e+02 4.41425232e+02 4.71104218e+02 4.72327026e+02 4.61699310e+02 5.05195038e+02 5.43074768e+02 5.26567688e+02 5.45479919e+02 5.82240601e+02 6.15088196e+02 6.56394958e+02 6.36992615e+02 6.20327148e+02 6.66241760e+02 7.31859680e+02 7.49137451e+02 7.23284851e+02 7.64945312e+02 8.15084167e+02 8.14365479e+02 8.55395874e+02 8.59352478e+02 8.41031616e+02 8.90461548e+02 9.36781677e+02 9.57014832e+02 1.00131635e+03 1.03170508e+03 1.01222369e+03 1.05827454e+03 1.11040381e+03 1.08387219e+03 1.11057153e+03 1.16150232e+03 1.18811328e+03 1.25427087e+03 1.31716541e+03 1.27238770e+03 1.23948877e+03 1.33198950e+03 1.39567517e+03 1.35994470e+03 1.40434106e+03 1.46640564e+03 1.50172021e+03 1.57135876e+03 1.54223975e+03 1.50337756e+03 1.56968567e+03 1.63017017e+03 1.66781006e+03 1.72327905e+03 1.74314905e+03 1.74506848e+03 1.81150073e+03 1.89100208e+03 1.84111182e+03 1.81792615e+03 1.88805615e+03 1.95670837e+03 2.04085718e+03 2.11918555e+03 2.05212866e+03 2.00124084e+03 2.14514526e+03 2.21591333e+03 2.14519873e+03 2.23276685e+03 2.31376538e+03 2.29378125e+03 2.37841235e+03 2.36252905e+03 2.31424048e+03 2.42468359e+03 2.55407861e+03 2.60749585e+03 2.66999487e+03 2.59562427e+03 2.50335864e+03 2.40988525e+03 2.62118726e+03 3.04893921e+03 3.13350342e+03 3.37973413e+03 4.01322705e+03 3.00388086e+04 13571935. 0. 0. 0. 0. 0. 0. 0. 0. 0. -40840484. -40840484. -40840484. 0. 0. 0. 0. 0. 0. 0. 0. 0. 0. 0. 0. 61014156. -6.63717150e+06 -23975306. 6.73368350e+06 3.22668925e+06 16968594. -5.38209150e+06 -26804780. -5.30005550e+06 -2670059. 8.06720950e+06 11261536. 4366395. 2.84338125e+06 8.05500950e+06 -19049750. -60221012. 5.79169150e+06 1.62707725e+06 5.96717750e+06 3951953. -43366060. -3.71975325e+06 -2.98224625e+06 -7493145. 1.53446602e+04 1.13617676e+04 7.33479102e+03 8.31404785e+03 8.17926953e+03 8.21302539e+03 7.86978271e+03 7.98456299e+03 8.23089062e+03 8.53726074e+03 7.62727197e+03 7.29166211e+03 5.89918945e+03 5.83929834e+03 5.81005127e+03 5.85695703e+03 5.87983740e+03 5.92322119e+03 5.98873145e+03 6.18387744e+03 6.26690625e+03 6.04529004e+03 6.07431592e+03 6.27286963e+03 6.31907666e+03 6.47372510e+03 6.49560010e+03 6.31044141e+03 6.36061133e+03 6.58325439e+03 6.67430713e+03
    1.83493938e+01 2.23490868e+01 2.52465820e+01 2.83379803e+01 3.34283600e+01 3.88275719e+01 4.40916939e+01 5.08213272e+01 5.66315689e+01 6.03183594e+01 6.85625534e+01 7.69755325e+01 8.03957672e+01 8.80421448e+01 9.74357605e+01 1.05287033e+02 1.17178406e+02 1.28735779e+02 1.32392380e+02 1.36992264e+02 1.52431641e+02 1.64405731e+02 1.67563812e+02 1.79675171e+02 1.95281509e+02 2.12227692e+02 2.29962509e+02 2.30353409e+02 2.31144562e+02 2.49146774e+02 2.67442627e+02 2.79773163e+02 2.93659973e+02 3.08697601e+02 3.23381409e+02 3.47124573e+02 3.72113556e+02 3.67996613e+02 3.62568176e+02 3.88573792e+02 4.16848938e+02 4.37181519e+02 4.65849640e+02 4.71434723e+02 4.61855194e+02 5.00676453e+02 5.35981995e+02 5.20118530e+02 5.37461975e+02 5.72746277e+02 6.08029846e+02 6.47996704e+02 6.30790588e+02 6.17362854e+02 6.58430786e+02 7.20823792e+02 7.40407654e+02 7.15497803e+02 7.56719177e+02 8.06491943e+02 8.06267578e+02 8.48498535e+02 8.53184631e+02 8.34784912e+02 8.81321777e+02 9.24920837e+02 9.47783264e+02 9.92663696e+02 1.02355261e+03 9.97803833e+02 1.04453735e+03 1.09888928e+03 1.07396863e+03 1.10412427e+03 1.15024890e+03 1.18258008e+03 1.24764014e+03 1.30215808e+03 1.25921887e+03 1.22694421e+03 1.31545923e+03 1.38118384e+03 1.34874194e+03 1.39775708e+03 1.45415247e+03 1.47981079e+03 1.54539868e+03 1.52224561e+03 1.49123669e+03 1.55515100e+03 1.62035730e+03 1.66270667e+03 1.71103027e+03 1.72168835e+03 1.72342029e+03 1.79987402e+03 1.88476929e+03 1.83405444e+03 1.79754175e+03 1.86548328e+03 1.94602734e+03 2.02378088e+03 2.09524243e+03 2.04272925e+03 2.00595105e+03 2.13614771e+03 2.20109497e+03 2.12456177e+03 2.20651318e+03 2.29693384e+03 2.29160474e+03 2.36632837e+03 2.35929956e+03 2.30207056e+03 2.37147827e+03 2.44837671e+03 2.50420801e+03 2.55313452e+03 2.64470654e+03 2.68153369e+03 2.61070288e+03 2.77359741e+03 3.00495361e+03 3.01075537e+03 3.91821143e+03 4.51492725e+03 7.59772803e+03 9.19721094e+03 13102660. 155186720. 0. 0. 0. 0. 0. 0. 0. -40840484. -40840484. -40840484. 0. 0. 0. 0. 0. 0. 0. 0. 0. 0. 6.97131550e+06 -9008190. 1.65100137e+04 9.94088379e+03 6.79737598e+03 6.81093701e+03 6.59426758e+03 6.46955859e+03 6.14044727e+03 6.35362891e+03 6.63273926e+03 6.49749658e+03 6.67668848e+03 6.57270947e+03 6.41970215e+03 6.67995801e+03 6.85909375e+03 6.87401953e+03 6.96000879e+03 7.02074658e+03 7.08886670e+03 7.35654590e+03 7.45381250e+03 7.13861523e+03 7.22689355e+03 7.47493506e+03 7.56481055e+03 7.14125537e+03 6.45966016e+03 4.98285889e+03 5.33316309e+03 5.39985645e+03 5.46816602e+03 5.21748242e+03 5.29913770e+03 5.46053760e+03 5.65274121e+03 5.83367676e+03 5.63378320e+03 5.39152197e+03 5.55786084e+03 5.70958398e+03 5.78240137e+03 5.87093945e+03 5.89608105e+03 5.92078760e+03 6.12442529e+03 6.18532617e+03 5.97317676e+03 6.03031396e+03 6.21868555e+03 6.26377539e+03 6.39900195e+03 6.43052197e+03 6.25807812e+03 6.32387891e+03 6.56231592e+03 6.62321387e+03
    1.76428871e+01 2.17275200e+01 2.46684074e+01 2.77580414e+01 3.27984505e+01 3.80517502e+01 4.31902428e+01 4.99787903e+01 5.59040718e+01 5.96330376e+01 6.79607239e+01 7.61503143e+01 7.92739716e+01 8.70338669e+01 9.65175552e+01 1.04397896e+02 1.16305672e+02 1.27446205e+02 1.30600967e+02 1.35204041e+02 1.51146347e+02 1.63398315e+02 1.66674332e+02 1.78419785e+02 1.93108841e+02 2.09964417e+02 2.27582458e+02 2.29411209e+02 2.31146744e+02 2.47419769e+02 2.64822388e+02 2.77926605e+02 2.92181427e+02 3.07976654e+02 3.23076691e+02 3.45043427e+02 3.67982300e+02 3.65802246e+02 3.64691193e+02 3.88720459e+02 4.13068939e+02 4.34455139e+02 4.65505219e+02 4.70579010e+02 4.63305420e+02 4.99971283e+02 5.31621094e+02 5.21921692e+02 5.40047607e+02 5.72123047e+02 6.05329651e+02 6.41213989e+02 6.24256775e+02 6.15332581e+02 6.57027222e+02 7.14722046e+02 7.32400085e+02 7.09645264e+02 7.54852234e+02 8.01325623e+02 8.01305359e+02 8.48788452e+02 8.46073669e+02 8.19132996e+02 8.67050659e+02 9.22605103e+02 9.42580750e+02 9.89414001e+02 1.02009991e+03 9.91272034e+02 1.03584961e+03 1.08841321e+03 1.06605127e+03 1.08927771e+03 1.13879102e+03 1.17387756e+03 1.24049243e+03 1.29934119e+03 1.25448193e+03 1.21957166e+03 1.30276782e+03 1.36864819e+03 1.34366333e+03 1.38963281e+03 1.44192126e+03 1.47310571e+03 1.53464746e+03 1.51039221e+03 1.48200769e+03 1.55358081e+03 1.62239148e+03 1.65226990e+03 1.68899316e+03 1.70970557e+03 1.71886707e+03 1.78961133e+03 1.87230762e+03 1.82569360e+03 1.78297131e+03 1.85282874e+03 1.92894043e+03 2.01509863e+03 2.08356860e+03 2.02884351e+03 1.99311047e+03 2.11638574e+03 2.18488770e+03 2.12805908e+03 2.20741675e+03 2.29285278e+03 2.27614575e+03 2.35182446e+03 2.34297046e+03 2.29927734e+03 2.37094678e+03 2.44280029e+03 2.48506421e+03 2.53782373e+03 2.61833667e+03 2.66516357e+03 2.60322168e+03 2.69631543e+03 2.76791528e+03 2.73675928e+03 3.04681519e+03 3.35750562e+03 5.04040430e+03 3.28694360e+03 4.09055938e+04 -11849470. 0. 0. 0. 0. 0. 0. 0. -10931127. -10931127. -10931127. -514853216. -514853216. -514853216. 0. 0. 0. 0. 0. 0. 0. 6.97131550e+06 -9008190. 6.97606201e+03 6.40056982e+03 4.82734082e+03 4.52172559e+03 4.34075928e+03 4.30020068e+03 4.08703418e+03 4.23487598e+03 4.40589551e+03 4.32517871e+03 4.46847461e+03 4.36347949e+03 4.21270459e+03 4.42447266e+03 4.57409570e+03 4.61034326e+03 4.64831348e+03 4.68581348e+03 4.72221143e+03 4.89426025e+03 4.97204590e+03 4.73910742e+03 4.78047070e+03 4.97070020e+03 5.00569141e+03 5.20422705e+03 5.39952490e+03 5.17730127e+03 4.93481250e+03 5.25140137e+03 5.44321924e+03 5.19666748e+03 5.25282910e+03 5.44097705e+03 5.62118066e+03 5.80728809e+03 5.59807910e+03 5.37831885e+03 5.53416943e+03 5.72430273e+03 5.75636377e+03 5.82429297e+03 5.86581445e+03 5.88938428e+03 6.10189209e+03 6.16267676e+03 5.94664111e+03 5.97981592e+03 6.17638867e+03 6.25356641e+03 6.35304492e+03 6.38154980e+03 6.21260938e+03 6.24957568e+03 6.52350342e+03 6.61716455e+03
    1.72791233e+01 2.15021515e+01 2.43002338e+01 2.70264511e+01 3.20512238e+01 3.78090973e+01 4.30460129e+01 4.96831093e+01 5.59264832e+01 5.92406311e+01 6.69725494e+01 7.58395996e+01 7.91861343e+01 8.68657455e+01 9.64639664e+01 1.04282837e+02 1.16318336e+02 1.27192558e+02 1.29830536e+02 1.33793625e+02 1.50580704e+02 1.64093033e+02 1.65663727e+02 1.76919006e+02 1.93156906e+02 2.10052505e+02 2.27163162e+02 2.27316315e+02 2.28449814e+02 2.46584213e+02 2.65400665e+02 2.77851990e+02 2.91688873e+02 3.07598572e+02 3.23353149e+02 3.45375275e+02 3.67514191e+02 3.64721100e+02 3.62079346e+02 3.86415344e+02 4.13940063e+02 4.35843597e+02 4.66825470e+02 4.73444336e+02 4.63018799e+02 4.99812927e+02 5.34324646e+02 5.19851685e+02 5.37567993e+02 5.74405945e+02 6.04767151e+02 6.40491821e+02 6.27926758e+02 6.19961914e+02 6.58264587e+02 7.12143738e+02 7.34122375e+02 7.16203613e+02 7.54065430e+02 7.96492310e+02 7.99871399e+02 8.48599670e+02 8.44056335e+02 8.17862793e+02 8.63541992e+02 9.16978516e+02 9.42048340e+02 9.92693604e+02 1.02117548e+03 9.82064453e+02 1.03117773e+03 1.09084607e+03 1.06336816e+03 1.08639697e+03 1.13952893e+03 1.17420605e+03 1.23694812e+03 1.30003027e+03 1.25256250e+03 1.21494153e+03 1.29949878e+03 1.36533435e+03 1.33837708e+03 1.38139355e+03 1.43874475e+03 1.47133887e+03 1.54283472e+03 1.51678589e+03 1.47132629e+03 1.53909839e+03 1.60996057e+03 1.64148279e+03 1.68001624e+03 1.70187048e+03 1.71293835e+03 1.79404236e+03 1.88285608e+03 1.81831921e+03 1.76005286e+03 1.82835876e+03 1.91689954e+03 2.01627686e+03 2.10133618e+03 2.03117334e+03 1.95940723e+03 2.08869287e+03 2.18148242e+03 2.10520825e+03 2.19224707e+03 2.30089624e+03 2.25827661e+03 2.34252979e+03 2.34773462e+03 2.25988599e+03 2.34331274e+03 2.44857959e+03 2.50123755e+03 2.54252783e+03 2.61776294e+03 2.65367700e+03 2.58108203e+03 2.67560596e+03 2.78375903e+03 2.70796558e+03 2.87536255e+03 3.24171411e+03 4.15917969e+03 3.08403442e+03 1.07132656e+04 -11849470. 0. 0. 0. 0. 0. 0. 0. 21988220. 21988220. 21988220. -514853216. -514853216. -514853216. 0. 0. 0. 0. 0. 0. 0. 6.97131550e+06 9.58651641e+04 9.42320996e+03 5.28659229e+03 4.33777148e+03 4.08543872e+03 4.22820166e+03 4.28813281e+03 4.06348901e+03 4.23923584e+03 4.41269189e+03 4.31595410e+03 4.50308301e+03 4.37950977e+03 4.21159229e+03 4.37230420e+03 4.57566309e+03 4.61250293e+03 4.65009912e+03 4.70583936e+03 4.73141406e+03 4.88215186e+03 4.94741602e+03 4.71953369e+03 4.78866699e+03 4.94313672e+03 4.97590283e+03 5.18932666e+03 5.38842383e+03 5.19987207e+03 4.94424121e+03 5.22393994e+03 5.41969336e+03 5.16348633e+03 5.23306836e+03 5.42400684e+03 5.62192480e+03 5.83312744e+03 5.55579785e+03 5.31195898e+03 5.53108594e+03 5.70860400e+03 5.74314307e+03 5.80850098e+03 5.85130322e+03 5.86933203e+03 6.08698877e+03 6.14568311e+03 5.90556250e+03 5.96725781e+03 6.19272168e+03 6.17419629e+03 6.36081494e+03 6.40282422e+03 6.16622266e+03 6.20779736e+03 6.55516064e+03 6.57684521e+03
    1.73426418e+01 2.15638523e+01 2.40034981e+01 2.64386406e+01 3.16154404e+01 3.75541306e+01 4.26185913e+01 4.99071732e+01 5.65008049e+01 5.85569000e+01 6.64022827e+01 7.62134552e+01 7.87268372e+01 8.60425949e+01 9.62975540e+01 1.04211617e+02 1.15915985e+02 1.27749527e+02 1.29807999e+02 1.31698532e+02 1.50238419e+02 1.65272110e+02 1.64213898e+02 1.75398804e+02 1.92797928e+02 2.09871277e+02 2.27366821e+02 2.25833282e+02 2.26387711e+02 2.46089706e+02 2.66180115e+02 2.76984802e+02 2.88879791e+02 3.05989227e+02 3.23952881e+02 3.47137726e+02 3.72108887e+02 3.65205902e+02 3.57066986e+02 3.83787354e+02 4.13937988e+02 4.37188293e+02 4.69817383e+02 4.71084351e+02 4.57031860e+02 4.97820038e+02 5.34937378e+02 5.16156860e+02 5.33684448e+02 5.74633240e+02 6.07480164e+02 6.48896118e+02 6.34598267e+02 6.16098816e+02 6.55713318e+02 7.14194092e+02 7.35856018e+02 7.16272522e+02 7.53717285e+02 7.99349854e+02 8.00927795e+02 8.48259949e+02 8.45277832e+02 8.20303528e+02 8.66533936e+02 9.20217224e+02 9.46977478e+02 9.90596436e+02 1.01710938e+03 9.85697083e+02 1.03392798e+03 1.09132458e+03 1.05817053e+03 1.08629773e+03 1.14474097e+03 1.17125891e+03 1.23821484e+03 1.30485767e+03 1.25511548e+03 1.21174487e+03 1.30512061e+03 1.37353137e+03 1.33144482e+03 1.36942224e+03 1.43599707e+03 1.48063623e+03 1.55807275e+03 1.51746973e+03 1.46129333e+03 1.53646948e+03 1.60671631e+03 1.63457532e+03 1.68241736e+03 1.70985730e+03 1.71465710e+03 1.79493579e+03 1.89117371e+03 1.81530676e+03 1.74831421e+03 1.82700452e+03 1.91637976e+03 2.01023206e+03 2.12532642e+03 2.03260010e+03 1.94045667e+03 2.08348999e+03 2.18326904e+03 2.08958716e+03 2.19635522e+03 2.30418506e+03 2.25306152e+03 2.35681641e+03 2.34979688e+03 2.21974292e+03 2.31345825e+03 2.43652612e+03 2.50380786e+03 2.54426270e+03 2.62293164e+03 2.66342358e+03 2.55882568e+03 2.66628296e+03 2.78720752e+03 2.67841919e+03 2.82451440e+03 3.21052148e+03 5.39451904e+03 4.60734570e+03 4.15920781e+04 -21292228. 0. 0. 0. 0. 0. 0. 0. 21988220. 21988220. 21988220. -514853216. -514853216. -514853216. 0. 0. 0. 0. 0. 0. 0. 23341422. 8.88884219e+04 1.51312471e+04 6.37032910e+03 4.40361133e+03 4.10705078e+03 4.23735107e+03 4.28195654e+03 4.04653149e+03 4.22825293e+03 4.41945215e+03 4.34785352e+03 4.50093945e+03 4.41366895e+03 4.19382910e+03 4.38066211e+03 4.56889062e+03 4.63620703e+03 4.68062793e+03 4.71611084e+03 4.73104492e+03 4.89756201e+03 4.94318408e+03 4.72774414e+03 4.79330322e+03 4.96670898e+03 5.00879395e+03 5.18827002e+03 5.37961279e+03 5.19450928e+03 4.95507959e+03 5.20870947e+03 5.43113379e+03 5.20452441e+03 5.22409033e+03 5.44840332e+03 5.62360059e+03 5.83491943e+03 5.57207617e+03 5.29084375e+03 5.50020752e+03 5.70971387e+03 5.74574658e+03 5.77432324e+03 5.85895312e+03 5.89357617e+03 6.10559570e+03 6.14977393e+03 5.85960156e+03 5.93932471e+03 6.12510205e+03 6.19296582e+03 6.40514307e+03 6.40980859e+03 6.13742725e+03 6.21790967e+03 6.55036523e+03 6.61231396e+03
    1.78512554e+01 2.18941574e+01 2.44193058e+01 2.71030140e+01 3.23217926e+01 3.83087234e+01 4.33806114e+01 5.08832664e+01 5.73517456e+01 5.90857887e+01 6.72755661e+01 7.69488525e+01 7.91506195e+01 8.63535156e+01 9.68630524e+01 1.05560425e+02 1.18207405e+02 1.29704010e+02 1.29731613e+02 1.31387833e+02 1.52316452e+02 1.67990356e+02 1.64667160e+02 1.75677078e+02 1.93944626e+02 2.11218323e+02 2.29246704e+02 2.26310867e+02 2.25545380e+02 2.47602768e+02 2.69588135e+02 2.79135376e+02 2.91000916e+02 3.08662476e+02 3.26671844e+02 3.50324829e+02 3.74560303e+02 3.66926331e+02 3.60106354e+02 3.86752869e+02 4.15856445e+02 4.38965088e+02 4.72991760e+02 4.75870575e+02 4.58628265e+02 5.00582520e+02 5.42399841e+02 5.18785950e+02 5.34916382e+02 5.78933350e+02 6.13122375e+02 6.53972046e+02 6.38184143e+02 6.17269165e+02 6.55675049e+02 7.18386292e+02 7.40129333e+02 7.17860779e+02 7.57172180e+02 8.05656189e+02 8.01957642e+02 8.47452454e+02 8.53964355e+02 8.31037354e+02 8.74228516e+02 9.27752136e+02 9.53764099e+02 9.94854431e+02 1.01798145e+03 9.92874573e+02 1.04257581e+03 1.10074683e+03 1.06958997e+03 1.09963831e+03 1.16133508e+03 1.18205005e+03 1.23320801e+03 1.29673035e+03 1.25776648e+03 1.22578284e+03 1.31612341e+03 1.37964392e+03 1.33508008e+03 1.37088940e+03 1.44427588e+03 1.49074866e+03 1.57357446e+03 1.52751306e+03 1.46944336e+03 1.53477917e+03 1.60047241e+03 1.63504370e+03 1.69184827e+03 1.71300635e+03 1.71869299e+03 1.80589990e+03 1.90710327e+03 1.81947876e+03 1.75528906e+03 1.84323206e+03 1.92766309e+03 2.01697180e+03 2.12073047e+03 2.03001990e+03 1.93498792e+03 2.09322998e+03 2.19478125e+03 2.09104590e+03 2.19471631e+03 2.30203784e+03 2.25910547e+03 2.37121191e+03 2.35642847e+03 2.22416260e+03 2.31660132e+03 2.45672827e+03 2.51769775e+03 2.54559351e+03 2.62008838e+03 2.65563013e+03 2.54715723e+03 2.68078125e+03 2.80595728e+03 2.65998706e+03 2.69963379e+03 3.05079077e+03 4.00534180e+03 8.44526660e+03 5.68679785e+03 14418021. -22079010. 13910413. 0. 0. 0. 0. 0. 0. 0. 0. 0. 0. 0. 0. 0. 0. 0. 0. 0. 0. -16638422. 4.10688984e+04 7.78561621e+03 4.51867871e+03 3.89983081e+03 3.97676855e+03 4.25032275e+03 4.29621143e+03 4.07443872e+03 4.23953125e+03 4.41993994e+03 4.33593115e+03 4.50101611e+03 4.45454443e+03 4.24588281e+03 4.39119873e+03 4.56427441e+03 4.62562158e+03 4.67756885e+03 4.72726953e+03 4.73352246e+03 4.93249414e+03 4.96265381e+03 4.77936377e+03 4.83764014e+03 5.00243408e+03 5.04309375e+03 5.18681201e+03 5.33578955e+03 5.21998926e+03 5.02130664e+03 5.28526953e+03 5.41393506e+03 5.24145947e+03 5.28703809e+03 5.47491504e+03 5.63834033e+03 5.83056348e+03 5.56578223e+03 5.36703711e+03 5.54232812e+03 5.72090918e+03 5.77584814e+03 5.80529590e+03 5.87370605e+03 5.93404688e+03 6.15735986e+03 6.16093555e+03 5.88378271e+03 5.96635596e+03 6.14341162e+03 6.18100391e+03 6.42568652e+03 6.41661670e+03 6.14063965e+03 6.26314795e+03 6.59683936e+03 6.57884570e+03
    1.82469330e+01 2.21933537e+01 2.48403664e+01 2.78408089e+01 3.31329613e+01 3.89437943e+01 4.41376228e+01 5.14256096e+01 5.76305504e+01 6.00270844e+01 6.82460098e+01 7.73767548e+01 8.02767410e+01 8.74091034e+01 9.79891891e+01 1.06960068e+02 1.18947594e+02 1.30565796e+02 1.30490814e+02 1.32274872e+02 1.54294250e+02 1.69294907e+02 1.65552933e+02 1.76844345e+02 1.94056610e+02 2.12252609e+02 2.32359283e+02 2.28476227e+02 2.27107651e+02 2.49037521e+02 2.70843140e+02 2.80920227e+02 2.92289825e+02 3.10233185e+02 3.28490723e+02 3.52873718e+02 3.76989014e+02 3.67580841e+02 3.62358795e+02 3.91649078e+02 4.18825531e+02 4.41078217e+02 4.72464203e+02 4.75143707e+02 4.62645233e+02 5.02483612e+02 5.39976868e+02 5.24114563e+02 5.39881653e+02 5.79114502e+02 6.16082581e+02 6.52923279e+02 6.38626404e+02 6.22785583e+02 6.62003174e+02 7.23691711e+02 7.38058350e+02 7.14220032e+02 7.59283752e+02 8.11226807e+02 8.07738525e+02 8.51927490e+02 8.60440979e+02 8.40014343e+02 8.80380432e+02 9.26946350e+02 9.53699707e+02 9.95688599e+02 1.02391913e+03 1.00144000e+03 1.04981055e+03 1.10785339e+03 1.07495593e+03 1.10113062e+03 1.15627563e+03 1.17875281e+03 1.24128772e+03 1.30694604e+03 1.26367725e+03 1.22869360e+03 1.32553662e+03 1.38684131e+03 1.34319531e+03 1.38166638e+03 1.45499451e+03 1.50863574e+03 1.57296301e+03 1.53024255e+03 1.48309973e+03 1.54517249e+03 1.60199023e+03 1.64253210e+03 1.71280542e+03 1.73446033e+03 1.72989294e+03 1.80744556e+03 1.90043311e+03 1.82619690e+03 1.77795984e+03 1.86478687e+03 1.94295813e+03 2.03010620e+03 2.11209912e+03 2.02904663e+03 1.96526868e+03 2.12162939e+03 2.19194482e+03 2.10132959e+03 2.20696899e+03 2.30688525e+03 2.27941138e+03 2.38123926e+03 2.35097827e+03 2.25557202e+03 2.35407959e+03 2.46235498e+03 2.52398877e+03 2.55150708e+03 2.63368188e+03 2.65746973e+03 2.55795166e+03 2.69234619e+03 2.80491016e+03 2.67008228e+03 2.71840625e+03 3.07159766e+03 3.65080542e+03 4.45545020e+03 3.21899023e+03 3.20140869e+03 6.39667969e+03 4.14782148e+04 -3009463. 0. 0. 0. 0. 0. 0. 0. 0. 0. 0. 0. 0. 0. 0. 0. 0. 0. -10262397. 2.96553203e+04 5.80813965e+03 4.28700977e+03 3.92540942e+03 4.00905981e+03 4.27986865e+03 4.31388281e+03 4.09625342e+03 4.24922266e+03 4.43535205e+03 4.34498682e+03 4.52474121e+03 4.49866650e+03 4.26465137e+03 4.36875781e+03 4.55593213e+03 4.63966602e+03 4.67920508e+03 4.74833838e+03 4.74905713e+03 4.92957324e+03 4.99438818e+03 4.76982422e+03 4.83689258e+03 5.02099512e+03 5.08066504e+03 5.19506299e+03 5.36158398e+03 5.23140674e+03 5.03939648e+03 5.28807129e+03 5.45649414e+03 5.25254883e+03 5.31718311e+03 5.51647119e+03 5.67148291e+03 5.83645508e+03 5.67346143e+03 5.46207275e+03 5.57395312e+03 5.70880420e+03 5.79273145e+03 5.81489697e+03 5.89451953e+03 5.99360010e+03 6.16149463e+03 6.20641797e+03 5.97832471e+03 5.97307666e+03 6.15294238e+03 6.23444287e+03 6.44172754e+03 6.44599268e+03 6.26002051e+03 6.31154297e+03 6.57746729e+03 6.63523975e+03
    1.92620792e+01 2.31891060e+01 2.61018581e+01 2.92323608e+01 3.43117218e+01 3.99635162e+01 4.51627922e+01 5.19800682e+01 5.79569016e+01 6.09294701e+01 6.92905197e+01 7.80925674e+01 8.11128540e+01 8.83213806e+01 9.89765625e+01 1.08526627e+02 1.20747223e+02 1.31161224e+02 1.31518631e+02 1.35521164e+02 1.55770554e+02 1.69325287e+02 1.68557419e+02 1.80113892e+02 1.96630539e+02 2.14450226e+02 2.32824936e+02 2.30936935e+02 2.31736893e+02 2.52903336e+02 2.73137238e+02 2.85114288e+02 2.97385468e+02 3.12237671e+02 3.28647461e+02 3.56415863e+02 3.81745270e+02 3.70428040e+02 3.65169159e+02 3.94741241e+02 4.21936401e+02 4.46320862e+02 4.79422668e+02 4.79094543e+02 4.67530579e+02 5.06840332e+02 5.40642639e+02 5.28961365e+02 5.46641968e+02 5.82528198e+02 6.20446838e+02 6.55485962e+02 6.40329590e+02 6.27161560e+02 6.66850525e+02 7.29572632e+02 7.43628845e+02 7.19159790e+02 7.66851868e+02 8.18645752e+02 8.16905273e+02 8.58872009e+02 8.67262634e+02 8.45228271e+02 8.88195618e+02 9.35243774e+02 9.56978455e+02 1.00546027e+03 1.03542053e+03 1.00941180e+03 1.05851746e+03 1.11797021e+03 1.08449988e+03 1.10300964e+03 1.16148804e+03 1.19589966e+03 1.25698560e+03 1.31622974e+03 1.27103638e+03 1.23848474e+03 1.33122815e+03 1.39481177e+03 1.36313086e+03 1.39644031e+03 1.46099548e+03 1.51216150e+03 1.57372046e+03 1.54660278e+03 1.50652466e+03 1.56310242e+03 1.62298889e+03 1.66283569e+03 1.71748694e+03 1.73426123e+03 1.74358875e+03 1.82313354e+03 1.89657971e+03 1.84977100e+03 1.81492725e+03 1.88237561e+03 1.95342883e+03 2.04311182e+03 2.11563428e+03 2.04659766e+03 2.00139502e+03 2.13543579e+03 2.20905811e+03 2.13106494e+03 2.23611816e+03 2.32068848e+03 2.29535645e+03 2.39011719e+03 2.35551025e+03 2.29515894e+03 2.39681470e+03 2.48511694e+03 2.53215015e+03 2.56613184e+03 2.65119629e+03 2.67866138e+03 2.59607739e+03 2.72461499e+03 2.81592725e+03 2.70875439e+03 2.81995459e+03 3.28816040e+03 3.30485327e+03 3.08637427e+03 2.51522363e+03 1.95637878e+03 3.15455737e+03 2.08541309e+04 181660080. 0. 0. 0. 0. 0. 0. 0. 0. 0. 0. 0. 0. 0. 0. 0. 16411451. -5737282. 1.55606650e+04 9.90446582e+03 5.03144141e+03 4.12774951e+03 3.93486133e+03 4.04239722e+03 4.30754199e+03 4.32341553e+03 4.15899561e+03 4.29585449e+03 4.44703906e+03 4.38990625e+03 4.54823535e+03 4.52247217e+03 4.29735205e+03 4.43951123e+03 4.61450732e+03 4.67376904e+03 4.70190967e+03 4.72782324e+03 4.77834229e+03 4.98515918e+03 5.06433203e+03 4.81679736e+03 4.86231787e+03 5.04090674e+03 5.10739551e+03 5.22015723e+03 5.38922559e+03 5.22783838e+03 5.07237646e+03 5.30418213e+03 5.47934814e+03 5.30373633e+03 5334. 5.54818750e+03 5.71756543e+03 5.85998828e+03 5.66385059e+03 5.50925244e+03 5.60588965e+03 5.77366846e+03 5.81624512e+03 5.88015430e+03 5.93650830e+03 6.02379199e+03 6.22758447e+03 6.23673682e+03 6.03461719e+03 6.04975781e+03 6.24315088e+03 6.29626270e+03 6.46342383e+03 6.51999414e+03 6.32395703e+03 6.39229688e+03 6.58620898e+03 6.65906104e+03
    2.07819099e+01 2.48819885e+01 2.77234612e+01 3.07662563e+01 3.61195679e+01 4.19445992e+01 4.71079063e+01 5.38762436e+01 5.98015671e+01 6.31047935e+01 7.13713837e+01 8.02056961e+01 8.33532486e+01 9.05380173e+01 1.01086052e+02 1.10196114e+02 1.21281487e+02 1.32146545e+02 1.34544922e+02 1.38493927e+02 1.56591827e+02 1.70274902e+02 1.71356476e+02 1.82964844e+02 1.99445633e+02 2.17724350e+02 2.36370300e+02 2.34505066e+02 2.35340454e+02 2.55397888e+02 2.75494049e+02 2.89448914e+02 3.01402527e+02 3.15477478e+02 3.31990112e+02 3.59143158e+02 3.84752747e+02 3.74056427e+02 3.68664062e+02 3.98493622e+02 4.27095764e+02 4.50854736e+02 4.83577881e+02 4.83551605e+02 4.71152405e+02 5.10992401e+02 5.45140747e+02 5.33009827e+02 5.52945679e+02 5.90801514e+02 6.28205078e+02 6.66514343e+02 6.50381836e+02 6.33232788e+02 6.74119629e+02 7.37080994e+02 7.51458740e+02 7.27887817e+02 7.75376526e+02 8.26382141e+02 8.25974365e+02 8.74952209e+02 8.76247803e+02 8.47582275e+02 8.91653564e+02 9.42625610e+02 9.65933289e+02 1.01579852e+03 1.04740808e+03 1.01819385e+03 1.06752649e+03 1.12608484e+03 1.09299402e+03 1.11527209e+03 1.17394763e+03 1.21013440e+03 1.27984961e+03 1.33749182e+03 1.28123816e+03 1.24314368e+03 1.34275732e+03 1.40928564e+03 1.37223816e+03 1.40738208e+03 1.48062280e+03 1.52926074e+03 1.59187073e+03 1.55693604e+03 1.51139441e+03 1.57674414e+03 1.64389893e+03 1.68404443e+03 1.73573828e+03 1.75623413e+03 1.76473669e+03 1.83871704e+03 1.91699353e+03 1.86895679e+03 1.83121753e+03 1.89854163e+03 1.97706641e+03 2.05861523e+03 2.13350171e+03 2.08472290e+03 2.03886597e+03 2.16176318e+03 2.22641162e+03 2.15370801e+03 2.25126611e+03 2.34670923e+03 2.32981372e+03 2.41393555e+03 2.39144189e+03 2.33351367e+03 2.42620337e+03 2.49774731e+03 2.55251367e+03 2.60301245e+03 2.68860815e+03 2.71525562e+03 2.63451196e+03 2.74865015e+03 2.86694556e+03 2.91916235e+03 2.99401343e+03 3.16385669e+03 3.14307666e+03 2.80160571e+03 2.76096094e+03 2.35326587e+03 2.13006104e+03 4.22001416e+03 3.66780664e+04 91509024. 0. 0. -662772736. 6692208. -16386676. -56708004. 42863740. -18217644. 0. 0. 0. 0. 0. 0. 67611984. 4.60903906e+04 7.99069043e+03 6.27193750e+03 4.64635938e+03 4.19285791e+03 3.96346631e+03 4.05817480e+03 4.32623193e+03 4.36412305e+03 4.18712354e+03 4.32157227e+03 4.50731348e+03 4.43124658e+03 4.61115479e+03 4.54044971e+03 4.31562549e+03 4.47399951e+03 4.66954736e+03 4.71347461e+03 4.74705371e+03 4.76959180e+03 4.81741064e+03 5.02216406e+03 5.07476807e+03 4.85458105e+03 4.89673584e+03 5.09400928e+03 5.17044922e+03 5.28322559e+03 5.49577246e+03 5.30261816e+03 5.05625635e+03 5.33144775e+03 5.55699512e+03 5.33498193e+03 5.36388086e+03 5.59936719e+03 5.75331836e+03 5.94575684e+03 5.75805566e+03 5.50057568e+03 5.64182764e+03 5.82197412e+03 5.88658301e+03 5.93677539e+03 6.02568994e+03 6.04817236e+03 6.22559326e+03 6.34131201e+03 6.10119580e+03 6.11779590e+03 6.28841309e+03 6.35319971e+03 6.51657178e+03 6.56105469e+03 6.40091748e+03 6.44942480e+03 6.66239600e+03 6.72216357e+03
    2.24679585e+01 2.66106682e+01 2.95445347e+01 3.25710411e+01 3.79215546e+01 4.38596420e+01 4.92428741e+01 5.62765350e+01 6.22466278e+01 6.55184174e+01 7.40136185e+01 8.27128372e+01 8.61308746e+01 9.38319092e+01 1.04270638e+02 1.13506462e+02 1.25422150e+02 1.36287247e+02 1.38688934e+02 1.42717789e+02 1.60032867e+02 1.73820358e+02 1.76424545e+02 1.88693665e+02 2.04606415e+02 2.21743134e+02 2.39800842e+02 2.39001801e+02 2.40594254e+02 2.60047211e+02 2.78710968e+02 2.92665985e+02 3.06040436e+02 3.20874146e+02 3.37094818e+02 3.63060852e+02 3.87999298e+02 3.79261200e+02 3.75936218e+02 4.03558868e+02 4.31718323e+02 4.57939789e+02 4.91995300e+02 4.92267242e+02 4.80591064e+02 5.20331360e+02 5.50302307e+02 5.40697083e+02 5.65103210e+02 5.98723022e+02 6.34785095e+02 6.75981140e+02 6.56603882e+02 6.38684387e+02 6.82367493e+02 7.48126587e+02 7.65447632e+02 7.44023254e+02 7.92362366e+02 8.38713623e+02 8.37452271e+02 8.87627380e+02 8.86741699e+02 8.56466187e+02 9.01564941e+02 9.55367859e+02 9.81934998e+02 1.03717639e+03 1.06087390e+03 1.02770667e+03 1.07917163e+03 1.13696655e+03 1.09837317e+03 1.12573120e+03 1.19278064e+03 1.23180249e+03 1.29459241e+03 1.34725684e+03 1.29514111e+03 1.26411047e+03 1.36644739e+03 1.42736157e+03 1.38927136e+03 1.42974915e+03 1.49200208e+03 1.53459839e+03 1.60515247e+03 1.57358740e+03 1.52852087e+03 1.59610840e+03 1.66987061e+03 1.71068408e+03 1.76023962e+03 1.77089673e+03 1.77260999e+03 1.86452893e+03 1.95174402e+03 1.89657349e+03 1.83804529e+03 1.91437561e+03 2.00911121e+03 2.07936499e+03 2.15329272e+03 2.11419116e+03 2.06694165e+03 2.17880591e+03 2.24660059e+03 2.19310791e+03 2.29149805e+03 2.38324829e+03 2.35500049e+03 2.43983154e+03 2.42377148e+03 2.35735840e+03 2.45033057e+03 2.53603198e+03 2.58664014e+03 2.62915845e+03 2.72314111e+03 2.77286719e+03 2.67967358e+03 2.79154858e+03 2.88497583e+03 2.98907520e+03 3.26784399e+03 2.96897778e+03 2.77765942e+03 2.92835107e+03 3.08417944e+03 2.76082910e+03 2.36139893e+03 3.56723389e+03 1.27518438e+04 91509024. 0. 0. -662772736. 6692208. -16386676. -56708004. 42863740. -18217644. 0. 0. 0. 0. 0. 0. 1.44044325e+06 2.57678184e+04 5.57387109e+03 4.46584424e+03 4.27691846e+03 4.21262598e+03 4.02807715e+03 4.10555176e+03 4.37361133e+03 4.40936621e+03 4.22455908e+03 4.37267236e+03 4.54910156e+03 4.49543701e+03 4.65736230e+03 4.56508545e+03 4.34620850e+03 4.54335303e+03 4.73570117e+03 4.77796436e+03 4.81506689e+03 4.84935156e+03 4.89512842e+03 5.10529834e+03 5.13678369e+03 4.90421973e+03 4.95689893e+03 5.18118750e+03 5.21963818e+03 5.36306104e+03 5.56242627e+03 5.38204980e+03 5.11240576e+03 5.42447559e+03 5.62546240e+03 5.40983252e+03 5.43985254e+03 5.64425732e+03 5.80836963e+03 5.99145605e+03 5.80115674e+03 5.54250879e+03 5.70771875e+03 5.92781592e+03 5.94794238e+03 6.00462354e+03 6.06699365e+03 6.12481250e+03 6.30804053e+03 6.41521289e+03 6.14753320e+03 6.14581201e+03 6.38994873e+03 6.47733057e+03 6.65595410e+03 6.66251855e+03 6.45700293e+03 6.44896045e+03 6.75647070e+03 6.85018555e+03
    2.48418217e+01 2.89940109e+01 3.19175720e+01 3.49831200e+01 4.03925133e+01 4.63363228e+01 5.17443924e+01 5.87680740e+01 6.50378876e+01 6.86950531e+01 7.66868744e+01 8.50972595e+01 8.92225800e+01 9.73301315e+01 1.07415222e+02 1.16028061e+02 1.28011856e+02 1.39847031e+02 1.43132385e+02 1.47381256e+02 1.64510422e+02 1.78683533e+02 1.81018982e+02 1.93035034e+02 2.09119644e+02 2.26541473e+02 2.46231155e+02 2.45129745e+02 2.45129593e+02 2.65492371e+02 2.86505341e+02 3.00717346e+02 3.13820465e+02 3.28958191e+02 3.44099792e+02 3.67582306e+02 3.93826294e+02 3.88807159e+02 3.86535065e+02 4.12835968e+02 4.39458954e+02 4.64484985e+02 4.96700287e+02 5.00350281e+02 4.91788239e+02 5.31462524e+02 5.61288757e+02 5.52763489e+02 5.77063171e+02 6.10296692e+02 6.43917664e+02 6.83933289e+02 6.69998840e+02 6.58376770e+02 6.99309326e+02 7.57178772e+02 7.73142700e+02 7.61447632e+02 8.10697327e+02 8.50461487e+02 8.53737915e+02 9.06749146e+02 8.98821594e+02 8.65982361e+02 9.14057495e+02 9.68266418e+02 9.97873230e+02 1.05902600e+03 1.08656885e+03 1.04674573e+03 1.09993726e+03 1.16146741e+03 1.11450415e+03 1.14478247e+03 1.21065308e+03 1.24555334e+03 1.31485034e+03 1.36921326e+03 1.31398804e+03 1.28897034e+03 1.40273730e+03 1.46027832e+03 1.40372144e+03 1.45301013e+03 1.51054126e+03 1.54957446e+03 1.61475635e+03 1.58915051e+03 1.56388635e+03 1.62691003e+03 1.68213269e+03 1.73004382e+03 1.78567236e+03 1.80249121e+03 1.80717004e+03 1.88917371e+03 1.98938708e+03 1.92498877e+03 1.85827148e+03 1.94778271e+03 2.04169116e+03 2.11245117e+03 2.18542212e+03 2.14683398e+03 2.09332080e+03 2.20333862e+03 2.29284961e+03 2.22466187e+03 2.32320703e+03 2.42333813e+03 2.40183496e+03 2.47201221e+03 2.46584595e+03 2.40823657e+03 2.49077612e+03 2.57497534e+03 2.62583398e+03 2.66961084e+03 2.75324707e+03 2.80316113e+03 2.73540479e+03 2.83330151e+03 2.92045288e+03 3.03980273e+03 3.34398535e+03 2913. 2.82831812e+03 3.14156763e+03 3.49535059e+03 3.83986182e+03 3.47712549e+03 2.68756177e+03 1.14390283e+04 7.86184850e+06 0. 0. -662772736. 6692208. -16386676. -56708004. 42863740. -18217644. 0. 0. 0. 0. 0. 0. 5.24764125e+05 2.48171230e+04 5.59435254e+03 4.50848975e+03 4.28960156e+03 4.26803760e+03 4.10233691e+03 4.19718555e+03 4.44840332e+03 4.45848047e+03 4.27430908e+03 4.48396240e+03 4.64015430e+03 4.54329297e+03 4.74211621e+03 4.64476270e+03 4.42096826e+03 4.61198535e+03 4.80475439e+03 4.84205127e+03 4.87675635e+03 4.94645020e+03 4.97316406e+03 5.16342188e+03 5.21549121e+03 4.97146045e+03 4.99717480e+03 5.23068359e+03 5.30633154e+03 5.46143164e+03 5.63701562e+03 5.44750195e+03 5.21159277e+03 5.51116797e+03 5.69761621e+03 5.48188770e+03 5530. 5.71049121e+03 5.87701416e+03 6.09982324e+03 5.88559424e+03 5.61242432e+03 5.81307520e+03 6.00623877e+03 6.01735205e+03 6.11730176e+03 6.14350488e+03 6.20835059e+03 6.41674805e+03 6.48612744e+03 6.23277832e+03 6.24384473e+03 6.45555762e+03 6.55273682e+03 6.74892236e+03 6.72198926e+03 6.50275879e+03 6.53863232e+03 6.85341260e+03 7.01295410e+03
    4.08597908e+01 4.50269279e+01 4.81135139e+01 5.12312355e+01 5.67198143e+01 6.29005013e+01 6.85322800e+01 7.53080826e+01 8.13850174e+01 8.48408279e+01 9.25742416e+01 1.01422958e+02 1.06193398e+02 1.14034363e+02 1.23533905e+02 1.32273300e+02 1.44837341e+02 1.56441193e+02 1.59225601e+02 1.63990311e+02 1.81469147e+02 1.95409683e+02 1.98096558e+02 2.10366760e+02 2.24652298e+02 2.41444641e+02 2.62269714e+02 2.61701263e+02 2.61914520e+02 2.82436249e+02 3.03353485e+02 3.16803589e+02 3.31480621e+02 3.47972443e+02 3.63086792e+02 3.86110657e+02 4.11957977e+02 4.07608185e+02 4.05953949e+02 4.32038605e+02 4.58662354e+02 4.84510681e+02 5.14973206e+02 5.16785706e+02 5.11120300e+02 5.49815491e+02 5.75754395e+02 5.72395935e+02 5.96968994e+02 6.22549927e+02 6.56065430e+02 6.99157227e+02 6.87693298e+02 6.81939575e+02 7.22866455e+02 7.74470276e+02 7.91980652e+02 7.83623596e+02 8.29676880e+02 8.65671509e+02 8.72914734e+02 9.24313660e+02 9.16523621e+02 8.91842468e+02 9.38778137e+02 9.85473145e+02 1.01512628e+03 1.08069006e+03 1.10473120e+03 1.06302698e+03 1.11814246e+03 1.18099695e+03 1.12956873e+03 1.15888513e+03 1.23009766e+03 1.27178308e+03 1.34646338e+03 1.39653296e+03 1.33903625e+03 1.31293030e+03 1.43050293e+03 1.48766760e+03 1.43228308e+03 1.47859631e+03 1.52605408e+03 1.56022510e+03 1.63300903e+03 1.61747778e+03 1.59302161e+03 1.65039050e+03 1.70990564e+03 1.75559607e+03 1.81150586e+03 1.82457178e+03 1.82050085e+03 1.90465503e+03 2.00931738e+03 1.94774512e+03 1.87901440e+03 1.96278357e+03 2.06988501e+03 2.14833545e+03 2.21524146e+03 2.17432642e+03 2.10642139e+03 2.22282886e+03 2.31935718e+03 2.25722168e+03 2.36581226e+03 2.46847607e+03 2.41776001e+03 2.49441748e+03 2.49087329e+03 2.43464771e+03 2.52165356e+03 2.60162549e+03 2.65330542e+03 2.69360376e+03 2.78970190e+03 2.83742383e+03 2.77456689e+03 2.86657544e+03 2.90889526e+03 2.93875464e+03 3.51054102e+03 2.99827563e+03 2.67531738e+03 3.31481372e+03 4.09103662e+03 4.33654492e+03 4.92182861e+03 5.93040332e+03 -7185384. -39875864. 0. 0. 0. 0. 0. 0. 0. 0. 0. 0. 0. 0. 0. 0. -3.11334650e+06 2.32226758e+04 4.99289502e+03 4.31944336e+03 4.31286133e+03 4.29851416e+03 4.15452002e+03 4.25233203e+03 4.49691455e+03 4.49155371e+03 4.31151367e+03 4.50990723e+03 4.65956885e+03 4.57854395e+03 4.77643652e+03 4.64801172e+03 4.45549219e+03 4.65155566e+03 4.82639258e+03 4.82565332e+03 4.90540479e+03 5.01252881e+03 5.00588037e+03 5.20093408e+03 5.30573730e+03 4.99128613e+03 5.04361670e+03 5.28609570e+03 5.34066797e+03 5.47625391e+03 5.64726611e+03 5.48046924e+03 5.24909863e+03 5.57632617e+03 5.74241504e+03 5.50481787e+03 5.58096533e+03 5.76057959e+03 5.88289551e+03 6.14150781e+03 5.93316602e+03 5.65263623e+03 5.86987451e+03 6.00358057e+03 6.04127881e+03 6.17577490e+03 6.20894336e+03 6.24058008e+03 6.47026562e+03 6.52331738e+03 6.27157910e+03 6.27297998e+03 6.48667871e+03 6.55614795e+03 6.78928809e+03 6.78082227e+03 6.54519678e+03 6.55630566e+03 6.90168848e+03 7.09387109e+03</data></ring16_0>
</opencv_storage>
