<?xml version="1.0"?>
<opencv_storage>
<ring16_8 type_id="opencv-matrix">
  <rows>16</rows>
  <cols>208</cols>
  <dt>f</dt>
  <data>
    3.87592468e+02 3.87582886e+02 3.87574371e+02 3.87549591e+02 3.87552063e+02 3.87554565e+02 3.87550079e+02 3.87530823e+02 3.87514069e+02 3.87517181e+02 3.87505157e+02 3.87508881e+02 3.87520935e+02 3.87513550e+02 3.87522919e+02 3.87520569e+02 3.87529663e+02 3.87534576e+02 3.87517731e+02 3.87517609e+02 3.87522797e+02 3.87518982e+02 3.87518341e+02 3.87525299e+02 3.87549805e+02 3.87560211e+02 3.87540741e+02 3.87534058e+02 3.87519165e+02 3.87511902e+02 3.87507538e+02 3.87516022e+02 3.87512543e+02 3.87510864e+02 3.87521088e+02 3.87516327e+02 3.87507751e+02 3.87525055e+02 3.87543488e+02 3.87551239e+02 3.87552094e+02 3.87558960e+02 3.87573151e+02 3.87564880e+02 3.87556854e+02 3.87561890e+02 3.87575439e+02 3.87595703e+02 3.87609589e+02 3.87603516e+02 3.87582825e+02 3.87560669e+02 3.87564423e+02 3.87597778e+02 3.87654510e+02 3.87697021e+02 3.87739716e+02 3.87740234e+02 3.87704651e+02 3.87696991e+02 3.87658813e+02 3.87686279e+02 3.87674408e+02 3.87631470e+02 3.87597290e+02 3.87573273e+02 3.87586853e+02 3.87612457e+02 3.87672424e+02 3.87719421e+02 3.87685455e+02 3.87644257e+02 3.87601349e+02 3.87586548e+02 3.87611237e+02 3.87642181e+02 3.87673645e+02 3.87626465e+02 3.87574677e+02 3.87549591e+02 3.87556244e+02 3.87584045e+02 3.87611786e+02 3.87608307e+02 3.87572784e+02 3.87539093e+02 3.87526672e+02 3.87548645e+02 3.87560242e+02 3.87559326e+02 3.87540649e+02 3.87527405e+02 3.87534424e+02 3.87537628e+02 3.87542084e+02 3.87537781e+02 3.87523560e+02 3.87514740e+02 3.87522125e+02 3.87547791e+02 3.87536652e+02 3.87540039e+02 3.87522644e+02 3.87519867e+02 3.87511078e+02 3.87520172e+02 3.87512329e+02 3.87531677e+02 3.87534851e+02 3.87543365e+02 3.87548065e+02 3.87547638e+02 3.87554962e+02 3.87580780e+02 3.87584717e+02 3.87586456e+02 3.87567169e+02 3.87545654e+02 3.87535278e+02 3.87522980e+02 3.87531891e+02 3.87535461e+02 3.87560608e+02 3.87584900e+02 3.87613251e+02 3.87611969e+02 3.87584778e+02 3.87602356e+02 3.87668121e+02 3.87729645e+02 3.87744598e+02 3.87753754e+02 3.87739838e+02 3.87718048e+02 3.87721222e+02 3.87707886e+02 3.87730255e+02 3.87707153e+02 3.87699066e+02 3.87701538e+02 3.87695770e+02 3.87682526e+02 3.87692322e+02 3.87743561e+02 3.87753479e+02 3.87708893e+02 3.87712524e+02 3.87679413e+02 3.87646210e+02 3.87626709e+02 3.87623291e+02 3.87646179e+02 3.87648956e+02 3.87640076e+02 3.87666931e+02 3.87664581e+02 3.87688812e+02 3.87687286e+02 3.87748566e+02 3.87741608e+02 3.87685669e+02 3.87660980e+02 3.87697113e+02 3.87725433e+02 3.87715881e+02 3.87670990e+02 3.87642456e+02 3.87615631e+02 3.87643311e+02 3.87678619e+02 3.87707642e+02 3.87696014e+02 3.87717529e+02 3.87720978e+02 3.87741058e+02 3.87739349e+02 3.87702637e+02 3.87667480e+02 3.87693359e+02 3.87665436e+02 3.87634369e+02 3.87603058e+02 3.87599030e+02 3.87615204e+02 3.87633240e+02 3.87677673e+02 3.87712555e+02 3.87691742e+02 3.87647675e+02 3.87611877e+02 3.87602020e+02 3.87627533e+02 3.87651825e+02 3.87664978e+02 3.87628784e+02 3.87611420e+02 3.87594757e+02 3.87566010e+02 3.87588593e+02 3.87613068e+02 3.87626587e+02 3.87597290e+02 3.87610565e+02 3.87681763e+02 3.87752289e+02 3.87726624e+02 3.87637634e+02 3.87600647e+02
    1.29956558e+02 1.29955063e+02 1.29946350e+02 1.29934341e+02 1.29934433e+02 1.29939941e+02 1.29946625e+02 1.29943130e+02 1.29928314e+02 1.29923553e+02 1.29920853e+02 1.29922379e+02 1.29921982e+02 1.29921402e+02 1.29922638e+02 1.29917725e+02 1.29916061e+02 1.29916519e+02 1.29917587e+02 1.29925720e+02 1.29927338e+02 1.29921005e+02 1.29916687e+02 1.29917343e+02 1.29921158e+02 1.29918747e+02 1.29916367e+02 1.29916672e+02 1.29916855e+02 1.29916214e+02 1.29916031e+02 1.29915298e+02 1.29915634e+02 1.29915512e+02 1.29916061e+02 1.29917511e+02 1.29916641e+02 1.29916534e+02 1.29916519e+02 1.29917679e+02 1.29919296e+02 1.29918503e+02 1.29921356e+02 1.29920883e+02 1.29918747e+02 1.29919144e+02 1.29926208e+02 1.29942108e+02 1.29950745e+02 1.29935135e+02 1.29922104e+02 1.29916489e+02 1.29920380e+02 1.29936264e+02 1.29963547e+02 1.29982101e+02 1.29986618e+02 1.29985367e+02 1.29985275e+02 1.29986465e+02 1.29992096e+02 1.30000122e+02 1.29995087e+02 1.29978165e+02 1.29957535e+02 1.29949203e+02 1.29950363e+02 1.29959152e+02 1.29973587e+02 1.29979462e+02 1.29978500e+02 1.29978882e+02 1.29981049e+02 1.29983429e+02 1.29989182e+02 1.29995209e+02 1.29994659e+02 1.29979965e+02 1.29964523e+02 1.29963165e+02 1.29960114e+02 1.29956573e+02 1.29959213e+02 1.29963181e+02 1.29966400e+02 1.29951431e+02 1.29947510e+02 1.29950119e+02 1.29955627e+02 1.29956146e+02 1.29944656e+02 1.29938934e+02 1.29937225e+02 1.29941864e+02 1.29947235e+02 1.29938217e+02 1.29932220e+02 1.29927856e+02 1.29934692e+02 1.29941376e+02 1.29937881e+02 1.29932449e+02 1.29924362e+02 1.29921143e+02 1.29919373e+02 1.29920868e+02 1.29923019e+02 1.29924408e+02 1.29925278e+02 1.29927719e+02 1.29929871e+02 1.29929901e+02 1.29928314e+02 1.29931931e+02 1.29935211e+02 1.29935974e+02 1.29933319e+02 1.29927261e+02 1.29922363e+02 1.29919373e+02 1.29925354e+02 1.29931427e+02 1.29933884e+02 1.29937408e+02 1.29939911e+02 1.29942261e+02 1.29940125e+02 1.29950439e+02 1.29971191e+02 1.29976669e+02 1.29974380e+02 1.29964798e+02 1.29961288e+02 1.29961456e+02 1.29962738e+02 1.29962585e+02 1.29962280e+02 1.29953049e+02 1.29952774e+02 1.29960098e+02 1.29975586e+02 1.29990143e+02 1.30004944e+02 1.30012756e+02 1.29997070e+02 1.29975143e+02 1.29967911e+02 1.29972260e+02 1.29990173e+02 1.30004196e+02 1.30002960e+02 1.29994431e+02 1.29989914e+02 1.29997513e+02 1.30010712e+02 1.30011963e+02 1.30001038e+02 1.29996124e+02 1.30013000e+02 1.30019638e+02 1.30021255e+02 1.30028885e+02 1.30030762e+02 1.30018555e+02 1.30005783e+02 1.29994995e+02 1.29985901e+02 1.29980942e+02 1.29994125e+02 1.30017929e+02 1.30035324e+02 1.30030502e+02 1.30021927e+02 1.30012787e+02 1.30021927e+02 1.30034927e+02 1.30041367e+02 1.30020538e+02 1.30005524e+02 1.29998047e+02 1.30012100e+02 1.30036179e+02 1.30044525e+02 1.30041275e+02 1.30021637e+02 1.30010834e+02 1.30012039e+02 1.30008255e+02 1.30003891e+02 1.30000626e+02 1.30000702e+02 1.30005341e+02 1.30013733e+02 1.30013000e+02 1.30002533e+02 1.29993973e+02 1.29991287e+02 1.29977432e+02 1.29965759e+02 1.29968353e+02 1.29985107e+02 1.29999634e+02 1.30002289e+02 1.29999649e+02 1.29995880e+02 1.29982895e+02 1.29964340e+02 1.29962723e+02
    1.31900238e+02 1.31881790e+02 1.31871445e+02 1.31871307e+02 1.31880234e+02 1.31890640e+02 1.31897537e+02 1.31891418e+02 1.31884521e+02 1.31880936e+02 1.31890625e+02 1.31900665e+02 1.31897858e+02 1.31889969e+02 1.31878342e+02 1.31880127e+02 1.31885193e+02 1.31887711e+02 1.31880295e+02 1.31871750e+02 1.31863495e+02 1.31865616e+02 1.31872162e+02 1.31879074e+02 1.31877625e+02 1.31872116e+02 1.31868942e+02 1.31863800e+02 1.31860077e+02 1.31856583e+02 1.31854294e+02 1.31853546e+02 1.31852676e+02 1.31850388e+02 1.31848709e+02 1.31849197e+02 1.31851044e+02 1.31851379e+02 1.31850449e+02 1.31849823e+02 1.31849670e+02 1.31848816e+02 1.31849350e+02 1.31849258e+02 1.31848953e+02 1.31850784e+02 1.31852371e+02 1.31851105e+02 1.31849167e+02 1.31849548e+02 1.31852859e+02 1.31855499e+02 1.31855408e+02 1.31851974e+02 1.31852615e+02 1.31852036e+02 1.31851715e+02 1.31851120e+02 1.31849533e+02 1.31849152e+02 1.31850754e+02 1.31850113e+02 1.31849457e+02 1.31849014e+02 1.31849152e+02 1.31848831e+02 1.31848984e+02 1.31848801e+02 1.31848450e+02 1.31849625e+02 1.31848633e+02 1.31850388e+02 1.31853943e+02 1.31855270e+02 1.31852524e+02 1.31848907e+02 1.31848862e+02 1.31849304e+02 1.31854309e+02 1.31868484e+02 1.31872574e+02 1.31863480e+02 1.31856659e+02 1.31856964e+02 1.31861862e+02 1.31868240e+02 1.31875061e+02 1.31870743e+02 1.31866928e+02 1.31863770e+02 1.31867691e+02 1.31873627e+02 1.31876572e+02 1.31874847e+02 1.31876343e+02 1.31887939e+02 1.31902069e+02 1.31914764e+02 1.31906799e+02 1.31887390e+02 1.31876328e+02 1.31875031e+02 1.31878342e+02 1.31877930e+02 1.31881882e+02 1.31890030e+02 1.31888687e+02 1.31875793e+02 1.31861801e+02 1.31855850e+02 1.31856293e+02 1.31861420e+02 1.31861343e+02 1.31860748e+02 1.31857849e+02 1.31857101e+02 1.31853409e+02 1.31851257e+02 1.31852692e+02 1.31857559e+02 1.31859543e+02 1.31862106e+02 1.31859756e+02 1.31856018e+02 1.31852325e+02 1.31855148e+02 1.31859100e+02 1.31856659e+02 1.31852188e+02 1.31849258e+02 1.31849167e+02 1.31850220e+02 1.31849594e+02 1.31848953e+02 1.31849091e+02 1.31849518e+02 1.31850357e+02 1.31850189e+02 1.31849655e+02 1.31848923e+02 1.31850586e+02 1.31853683e+02 1.31853226e+02 1.31849182e+02 1.31848297e+02 1.31848724e+02 1.31848785e+02 1.31849701e+02 1.31857941e+02 1.31866196e+02 1.31858917e+02 1.31849243e+02 1.31849823e+02 1.31855118e+02 1.31858078e+02 1.31859772e+02 1.31856033e+02 1.31855255e+02 1.31850967e+02 1.31850677e+02 1.31853287e+02 1.31860016e+02 1.31862289e+02 1.31855865e+02 1.31854416e+02 1.31857910e+02 1.31865753e+02 1.31873550e+02 1.31873505e+02 1.31866821e+02 1.31861511e+02 1.31857986e+02 1.31857590e+02 1.31861115e+02 1.31866806e+02 1.31869904e+02 1.31866455e+02 1.31871887e+02 1.31890564e+02 1.31908646e+02 1.31907181e+02 1.31890045e+02 1.31883881e+02 1.31881363e+02 1.31881073e+02 1.31890701e+02 1.31910080e+02 1.31915665e+02 1.31894424e+02 1.31880707e+02 1.31881363e+02 1.31897552e+02 1.31911407e+02 1.31904312e+02 1.31884995e+02 1.31882355e+02 1.31883881e+02 1.31886353e+02 1.31892624e+02 1.31902084e+02 1.31905762e+02 1.31896942e+02 1.31890900e+02 1.31889389e+02 1.31892761e+02 1.31907257e+02 1.31915329e+02 1.31914246e+02
    1.33561264e+02 1.33551300e+02 1.33543365e+02 1.33542694e+02 1.33541702e+02 1.33535812e+02 1.33539764e+02 1.33539673e+02 1.33530746e+02 1.33530685e+02 1.33531647e+02 1.33537201e+02 1.33531296e+02 1.33535538e+02 1.33531555e+02 1.33527939e+02 1.33515823e+02 1.33514648e+02 1.33518097e+02 1.33525009e+02 1.33518539e+02 1.33510864e+02 1.33508545e+02 1.33511154e+02 1.33520004e+02 1.33519989e+02 1.33515686e+02 1.33507660e+02 1.33505188e+02 1.33503265e+02 1.33498062e+02 1.33495056e+02 1.33493073e+02 1.33493500e+02 1.33491104e+02 1.33489594e+02 1.33489960e+02 1.33489975e+02 1.33490250e+02 1.33490234e+02 1.33489883e+02 1.33490540e+02 1.33488754e+02 1.33487503e+02 1.33487839e+02 1.33488235e+02 1.33488052e+02 1.33491516e+02 1.33493011e+02 1.33489258e+02 1.33488037e+02 1.33487946e+02 1.33487869e+02 1.33490036e+02 1.33495270e+02 1.33497574e+02 1.33496429e+02 1.33496918e+02 1.33500702e+02 1.33504074e+02 1.33505432e+02 1.33504364e+02 1.33506256e+02 1.33503876e+02 1.33500168e+02 1.33496887e+02 1.33496841e+02 1.33499756e+02 1.33504791e+02 1.33506332e+02 1.33503662e+02 1.33501602e+02 1.33502319e+02 1.33500473e+02 1.33499832e+02 1.33500854e+02 1.33504120e+02 1.33502045e+02 1.33497147e+02 1.33496994e+02 1.33498398e+02 1.33497299e+02 1.33494232e+02 1.33491028e+02 1.33491135e+02 1.33489090e+02 1.33488541e+02 1.33488571e+02 1.33488388e+02 1.33487915e+02 1.33488052e+02 1.33487610e+02 1.33487411e+02 1.33487274e+02 1.33487762e+02 1.33487473e+02 1.33488602e+02 1.33489960e+02 1.33489487e+02 1.33488235e+02 1.33487976e+02 1.33487701e+02 1.33488892e+02 1.33494598e+02 1.33503342e+02 1.33507996e+02 1.33507217e+02 1.33506256e+02 1.33502228e+02 1.33496536e+02 1.33496521e+02 1.33498077e+02 1.33502777e+02 1.33502472e+02 1.33499191e+02 1.33496262e+02 1.33496796e+02 1.33498993e+02 1.33502792e+02 1.33499374e+02 1.33492844e+02 1.33488785e+02 1.33490799e+02 1.33496689e+02 1.33506241e+02 1.33506485e+02 1.33501205e+02 1.33491745e+02 1.33488068e+02 1.33487808e+02 1.33488129e+02 1.33490616e+02 1.33490631e+02 1.33487991e+02 1.33487534e+02 1.33488007e+02 1.33489212e+02 1.33490845e+02 1.33489990e+02 1.33489059e+02 1.33488113e+02 1.33487686e+02 1.33488205e+02 1.33488815e+02 1.33487762e+02 1.33487930e+02 1.33488449e+02 1.33488068e+02 1.33487869e+02 1.33487793e+02 1.33489395e+02 1.33492905e+02 1.33493225e+02 1.33489410e+02 1.33488358e+02 1.33489532e+02 1.33492783e+02 1.33494461e+02 1.33495178e+02 1.33495361e+02 1.33490662e+02 1.33489624e+02 1.33489304e+02 1.33490494e+02 1.33490555e+02 1.33488510e+02 1.33487701e+02 1.33487686e+02 1.33487991e+02 1.33487854e+02 1.33489273e+02 1.33492935e+02 1.33491791e+02 1.33488220e+02 1.33487381e+02 1.33487885e+02 1.33488922e+02 1.33488388e+02 1.33489563e+02 1.33489944e+02 1.33487976e+02 1.33493454e+02 1.33497604e+02 1.33495026e+02 1.33490143e+02 1.33487808e+02 1.33492920e+02 1.33494675e+02 1.33489105e+02 1.33487625e+02 1.33487564e+02 1.33488892e+02 1.33491058e+02 1.33488724e+02 1.33488342e+02 1.33488937e+02 1.33488205e+02 1.33487305e+02 1.33491806e+02 1.33501083e+02 1.33502014e+02 1.33491791e+02 1.33488968e+02 1.33491547e+02 1.33496994e+02 1.33503830e+02 1.33501373e+02 1.33497208e+02
    1.34842606e+02 1.34848587e+02 1.34859695e+02 1.34862411e+02 1.34847733e+02 1.34830444e+02 1.34830017e+02 1.34836716e+02 1.34848557e+02 1.34849777e+02 1.34838089e+02 1.34825378e+02 1.34819153e+02 1.34824158e+02 1.34828461e+02 1.34829254e+02 1.34824203e+02 1.34823700e+02 1.34826660e+02 1.34827576e+02 1.34828995e+02 1.34829163e+02 1.34829117e+02 1.34826523e+02 1.34823166e+02 1.34825531e+02 1.34830719e+02 1.34836197e+02 1.34833832e+02 1.34827393e+02 1.34822403e+02 1.34819550e+02 1.34817795e+02 1.34818680e+02 1.34819717e+02 1.34822037e+02 1.34827606e+02 1.34831451e+02 1.34827240e+02 1.34817017e+02 1.34813293e+02 1.34813660e+02 1.34816498e+02 1.34816727e+02 1.34812897e+02 1.34814713e+02 1.34815033e+02 1.34813446e+02 1.34812973e+02 1.34812927e+02 1.34813065e+02 1.34813782e+02 1.34813599e+02 1.34812912e+02 1.34812515e+02 1.34812820e+02 1.34813705e+02 1.34813263e+02 1.34813446e+02 1.34814667e+02 1.34817291e+02 1.34818787e+02 1.34816360e+02 1.34815765e+02 1.34815140e+02 1.34816559e+02 1.34818192e+02 1.34817368e+02 1.34819672e+02 1.34821411e+02 1.34824722e+02 1.34823685e+02 1.34819565e+02 1.34818420e+02 1.34817307e+02 1.34816681e+02 1.34815506e+02 1.34815598e+02 1.34818527e+02 1.34825653e+02 1.34832962e+02 1.34837891e+02 1.34834671e+02 1.34831665e+02 1.34828613e+02 1.34827362e+02 1.34834045e+02 1.34838074e+02 1.34841125e+02 1.34843063e+02 1.34843307e+02 1.34845367e+02 1.34844299e+02 1.34848190e+02 1.34853546e+02 1.34854507e+02 1.34854614e+02 1.34855011e+02 1.34856308e+02 1.34852005e+02 1.34851898e+02 1.34849411e+02 1.34842255e+02 1.34831177e+02 1.34828903e+02 1.34829407e+02 1.34829788e+02 1.34826782e+02 1.34818512e+02 1.34814651e+02 1.34812866e+02 1.34816833e+02 1.34825745e+02 1.34832123e+02 1.34829712e+02 1.34819046e+02 1.34813446e+02 1.34812622e+02 1.34813354e+02 1.34815201e+02 1.34816208e+02 1.34818039e+02 1.34816467e+02 1.34812836e+02 1.34813431e+02 1.34813477e+02 1.34813400e+02 1.34812317e+02 1.34812408e+02 1.34814682e+02 1.34813751e+02 1.34813187e+02 1.34813675e+02 1.34813568e+02 1.34813095e+02 1.34812668e+02 1.34813644e+02 1.34813141e+02 1.34812744e+02 1.34813538e+02 1.34813889e+02 1.34813751e+02 1.34813766e+02 1.34813782e+02 1.34813583e+02 1.34813736e+02 1.34813751e+02 1.34812653e+02 1.34812393e+02 1.34812729e+02 1.34812744e+02 1.34813187e+02 1.34812759e+02 1.34813171e+02 1.34812775e+02 1.34812912e+02 1.34815155e+02 1.34817215e+02 1.34817520e+02 1.34814087e+02 1.34812759e+02 1.34813492e+02 1.34815033e+02 1.34817490e+02 1.34817947e+02 1.34817566e+02 1.34818558e+02 1.34817520e+02 1.34817657e+02 1.34817520e+02 1.34820282e+02 1.34821426e+02 1.34818390e+02 1.34816757e+02 1.34816986e+02 1.34817230e+02 1.34816940e+02 1.34818237e+02 1.34824509e+02 1.34828537e+02 1.34826691e+02 1.34823990e+02 1.34824265e+02 1.34826767e+02 1.34824570e+02 1.34822128e+02 1.34824707e+02 1.34831055e+02 1.34830902e+02 1.34827209e+02 1.34822678e+02 1.34825256e+02 1.34828537e+02 1.34829407e+02 1.34827377e+02 1.34828781e+02 1.34831146e+02 1.34829224e+02 1.34825562e+02 1.34821930e+02 1.34820038e+02 1.34820312e+02 1.34822296e+02 1.34824753e+02 1.34826035e+02 1.34835007e+02 1.34843475e+02 1.34837738e+02
    1.35804260e+02 1.35805756e+02 1.35812439e+02 1.35822021e+02 1.35827225e+02 1.35820389e+02 1.35810837e+02 1.35806427e+02 1.35813034e+02 1.35823349e+02 1.35830841e+02 1.35822067e+02 1.35822250e+02 1.35825409e+02 1.35826019e+02 1.35829987e+02 1.35836212e+02 1.35847748e+02 1.35846085e+02 1.35834335e+02 1.35826157e+02 1.35832443e+02 1.35851349e+02 1.35870499e+02 1.35862625e+02 1.35842651e+02 1.35828079e+02 1.35825729e+02 1.35834656e+02 1.35843613e+02 1.35844360e+02 1.35843826e+02 1.35842102e+02 1.35843384e+02 1.35847061e+02 1.35850754e+02 1.35855072e+02 1.35847336e+02 1.35837433e+02 1.35831039e+02 1.35829193e+02 1.35833054e+02 1.35840820e+02 1.35845016e+02 1.35834412e+02 1.35823868e+02 1.35817490e+02 1.35818573e+02 1.35820404e+02 1.35817657e+02 1.35811340e+02 1.35806564e+02 1.35804779e+02 1.35806961e+02 1.35811111e+02 1.35815857e+02 1.35819656e+02 1.35817322e+02 1.35813858e+02 1.35809769e+02 1.35806900e+02 1.35806427e+02 1.35806931e+02 1.35807556e+02 1.35809006e+02 1.35808746e+02 1.35807526e+02 1.35805420e+02 1.35805710e+02 1.35810593e+02 1.35813553e+02 1.35812439e+02 1.35806946e+02 1.35803665e+02 1.35803024e+02 1.35803528e+02 1.35805618e+02 1.35807495e+02 1.35807648e+02 1.35806335e+02 1.35805344e+02 1.35804810e+02 1.35803772e+02 1.35803253e+02 1.35803040e+02 1.35802979e+02 1.35803589e+02 1.35802887e+02 1.35803146e+02 1.35803040e+02 1.35802811e+02 1.35803268e+02 1.35803116e+02 1.35803635e+02 1.35803650e+02 1.35803528e+02 1.35803299e+02 1.35803955e+02 1.35806992e+02 1.35806778e+02 1.35805588e+02 1.35805069e+02 1.35809174e+02 1.35813660e+02 1.35814713e+02 1.35813629e+02 1.35813263e+02 1.35814636e+02 1.35811996e+02 1.35808640e+02 1.35808197e+02 1.35810089e+02 1.35815475e+02 1.35820374e+02 1.35827606e+02 1.35822205e+02 1.35816406e+02 1.35815262e+02 1.35820129e+02 1.35823975e+02 1.35820526e+02 1.35820267e+02 1.35823074e+02 1.35824249e+02 1.35825806e+02 1.35827393e+02 1.35831848e+02 1.35818695e+02 1.35805313e+02 1.35803009e+02 1.35803268e+02 1.35804184e+02 1.35806305e+02 1.35804794e+02 1.35802994e+02 1.35803589e+02 1.35804703e+02 1.35803589e+02 1.35803299e+02 1.35802948e+02 1.35802536e+02 1.35805649e+02 1.35809967e+02 1.35810898e+02 1.35805191e+02 1.35803253e+02 1.35803299e+02 1.35802933e+02 1.35802673e+02 1.35804184e+02 1.35807236e+02 1.35807632e+02 1.35804947e+02 1.35803192e+02 1.35803009e+02 1.35805527e+02 1.35811417e+02 1.35812729e+02 1.35810303e+02 1.35806854e+02 1.35804596e+02 1.35803604e+02 1.35803329e+02 1.35803436e+02 1.35803802e+02 1.35803833e+02 1.35805191e+02 1.35805710e+02 1.35804672e+02 1.35803268e+02 1.35803360e+02 1.35804718e+02 1.35808746e+02 1.35808243e+02 1.35806564e+02 1.35803970e+02 1.35803726e+02 1.35802719e+02 1.35802689e+02 1.35805710e+02 1.35806870e+02 1.35806915e+02 1.35807022e+02 1.35806732e+02 1.35805084e+02 1.35804993e+02 1.35805099e+02 1.35803604e+02 1.35804077e+02 1.35804947e+02 1.35804367e+02 1.35804321e+02 1.35804138e+02 1.35803299e+02 1.35803238e+02 1.35804535e+02 1.35804688e+02 1.35804123e+02 1.35803802e+02 1.35803528e+02 1.35803604e+02 1.35803513e+02 1.35806229e+02 1.35812790e+02 1.35813141e+02 1.35809998e+02 1.35806534e+02 1.35804001e+02
    1.36475250e+02 1.36468460e+02 1.36465698e+02 1.36465240e+02 1.36465240e+02 1.36465118e+02 1.36465408e+02 1.36465820e+02 1.36465103e+02 1.36465378e+02 1.36466843e+02 1.36466644e+02 1.36467651e+02 1.36468323e+02 1.36470245e+02 1.36475845e+02 1.36485992e+02 1.36497238e+02 1.36496323e+02 1.36490585e+02 1.36478790e+02 1.36473480e+02 1.36470688e+02 1.36473679e+02 1.36480362e+02 1.36488907e+02 1.36485687e+02 1.36474579e+02 1.36469116e+02 1.36469711e+02 1.36478210e+02 1.36488144e+02 1.36495209e+02 1.36497238e+02 1.36502945e+02 1.36507248e+02 1.36502930e+02 1.36491058e+02 1.36489532e+02 1.36498520e+02 1.36509735e+02 1.36516205e+02 1.36520203e+02 1.36512833e+02 1.36497345e+02 1.36487000e+02 1.36489838e+02 1.36490936e+02 1.36484085e+02 1.36481979e+02 1.36489578e+02 1.36502869e+02 1.36501648e+02 1.36489792e+02 1.36485947e+02 1.36484497e+02 1.36488586e+02 1.36485886e+02 1.36479065e+02 1.36474915e+02 1.36474121e+02 1.36476440e+02 1.36475586e+02 1.36475113e+02 1.36479095e+02 1.36481644e+02 1.36483170e+02 1.36479294e+02 1.36478760e+02 1.36476532e+02 1.36475433e+02 1.36476669e+02 1.36476044e+02 1.36473267e+02 1.36473206e+02 1.36479614e+02 1.36488327e+02 1.36481277e+02 1.36469666e+02 1.36465500e+02 1.36464996e+02 1.36465225e+02 1.36466614e+02 1.36467987e+02 1.36469376e+02 1.36466873e+02 1.36468002e+02 1.36471542e+02 1.36473434e+02 1.36472778e+02 1.36469009e+02 1.36467316e+02 1.36466736e+02 1.36465927e+02 1.36466248e+02 1.36465149e+02 1.36465073e+02 1.36465393e+02 1.36465546e+02 1.36465195e+02 1.36465012e+02 1.36464981e+02 1.36465256e+02 1.36467178e+02 1.36468811e+02 1.36468750e+02 1.36468491e+02 1.36468552e+02 1.36471390e+02 1.36472534e+02 1.36476242e+02 1.36476410e+02 1.36472565e+02 1.36470718e+02 1.36469208e+02 1.36473785e+02 1.36482468e+02 1.36488602e+02 1.36487534e+02 1.36479492e+02 1.36477463e+02 1.36475693e+02 1.36475861e+02 1.36478912e+02 1.36482254e+02 1.36484131e+02 1.36484192e+02 1.36483658e+02 1.36484177e+02 1.36486862e+02 1.36484985e+02 1.36485336e+02 1.36481964e+02 1.36481674e+02 1.36482651e+02 1.36480042e+02 1.36479721e+02 1.36481003e+02 1.36487091e+02 1.36492081e+02 1.36486389e+02 1.36473892e+02 1.36467880e+02 1.36466736e+02 1.36467697e+02 1.36470383e+02 1.36474106e+02 1.36476883e+02 1.36474808e+02 1.36470459e+02 1.36468018e+02 1.36466553e+02 1.36465988e+02 1.36466110e+02 1.36466400e+02 1.36465775e+02 1.36464966e+02 1.36465073e+02 1.36465042e+02 1.36465317e+02 1.36465164e+02 1.36465469e+02 1.36465759e+02 1.36466415e+02 1.36465775e+02 1.36465439e+02 1.36465179e+02 1.36465134e+02 1.36465179e+02 1.36465134e+02 1.36465088e+02 1.36464981e+02 1.36465103e+02 1.36464996e+02 1.36465012e+02 1.36465042e+02 1.36465637e+02 1.36465576e+02 1.36465118e+02 1.36465103e+02 1.36465073e+02 1.36465317e+02 1.36465897e+02 1.36466980e+02 1.36466492e+02 1.36465759e+02 1.36465607e+02 1.36466492e+02 1.36467514e+02 1.36466431e+02 1.36465530e+02 1.36465240e+02 1.36465210e+02 1.36465164e+02 1.36465744e+02 1.36468811e+02 1.36469864e+02 1.36468414e+02 1.36465286e+02 1.36465805e+02 1.36466782e+02 1.36465775e+02 1.36465378e+02 1.36465820e+02 1.36466217e+02 1.36465668e+02 1.36465317e+02 1.36465714e+02
    1.37008759e+02 1.36990829e+02 1.37016800e+02 1.37068253e+02 1.37101166e+02 1.37054901e+02 1.37035507e+02 1.37010422e+02 1.37025787e+02 1.37055115e+02 1.37087112e+02 1.37086426e+02 1.37053024e+02 1.37051010e+02 1.37025589e+02 1.37023483e+02 1.36997025e+02 1.37001175e+02 1.37015152e+02 1.37025452e+02 1.36981812e+02 1.36944153e+02 1.36922424e+02 1.36922195e+02 1.36942932e+02 1.36950043e+02 1.36944519e+02 1.36903809e+02 1.36884949e+02 1.36882874e+02 1.36869141e+02 1.36857651e+02 1.36848755e+02 1.36848587e+02 1.36845551e+02 1.36841553e+02 1.36848785e+02 1.36850784e+02 1.36844086e+02 1.36835358e+02 1.36832718e+02 1.36841431e+02 1.36851624e+02 1.36853012e+02 1.36837708e+02 1.36823044e+02 1.36816284e+02 1.36820709e+02 1.36824829e+02 1.36820374e+02 1.36809265e+02 1.36801865e+02 1.36801407e+02 1.36811630e+02 1.36830536e+02 1.36850067e+02 1.36847260e+02 1.36832916e+02 1.36825638e+02 1.36820175e+02 1.36823975e+02 1.36824921e+02 1.36826935e+02 1.36829193e+02 1.36829010e+02 1.36825180e+02 1.36814621e+02 1.36808762e+02 1.36810394e+02 1.36823517e+02 1.36834991e+02 1.36836578e+02 1.36824646e+02 1.36812317e+02 1.36805817e+02 1.36806290e+02 1.36809906e+02 1.36819260e+02 1.36824448e+02 1.36822418e+02 1.36812881e+02 1.36805695e+02 1.36803848e+02 1.36804016e+02 1.36806519e+02 1.36813065e+02 1.36818237e+02 1.36815094e+02 1.36810669e+02 1.36806992e+02 1.36806900e+02 1.36808838e+02 1.36814407e+02 1.36822601e+02 1.36820953e+02 1.36821091e+02 1.36817627e+02 1.36814621e+02 1.36807831e+02 1.36803879e+02 1.36801895e+02 1.36800247e+02 1.36799271e+02 1.36799423e+02 1.36800751e+02 1.36803085e+02 1.36805557e+02 1.36804260e+02 1.36802063e+02 1.36801544e+02 1.36802979e+02 1.36805176e+02 1.36801453e+02 1.36798645e+02 1.36799500e+02 1.36800095e+02 1.36798569e+02 1.36798492e+02 1.36798431e+02 1.36799820e+02 1.36805038e+02 1.36811401e+02 1.36808182e+02 1.36800140e+02 1.36798401e+02 1.36798416e+02 1.36799316e+02 1.36798447e+02 1.36809082e+02 1.36829163e+02 1.36830383e+02 1.36811493e+02 1.36802170e+02 1.36803146e+02 1.36807709e+02 1.36818542e+02 1.36824646e+02 1.36820740e+02 1.36815659e+02 1.36813309e+02 1.36826111e+02 1.36859604e+02 1.36882950e+02 1.36882401e+02 1.36848907e+02 1.36829208e+02 1.36817688e+02 1.36820663e+02 1.36841293e+02 1.36869064e+02 1.36870132e+02 1.36845825e+02 1.36835052e+02 1.36846268e+02 1.36863647e+02 1.36872345e+02 1.36865555e+02 1.36860779e+02 1.36857834e+02 1.36854431e+02 1.36855316e+02 1.36856140e+02 1.36852325e+02 1.36841385e+02 1.36841263e+02 1.36851074e+02 1.36862793e+02 1.36869553e+02 1.36869064e+02 1.36858643e+02 1.36849838e+02 1.36839203e+02 1.36849579e+02 1.36861481e+02 1.36869385e+02 1.36853256e+02 1.36830383e+02 1.36832275e+02 1.36861420e+02 1.36893738e+02 1.36889511e+02 1.36870712e+02 1.36864548e+02 1.36868408e+02 1.36864471e+02 1.36886520e+02 1.36905884e+02 1.36888290e+02 1.36846832e+02 1.36829178e+02 1.36834686e+02 1.36850861e+02 1.36853424e+02 1.36850632e+02 1.36841415e+02 1.36853271e+02 1.36863312e+02 1.36863602e+02 1.36866730e+02 1.36876663e+02 1.36893280e+02 1.36868530e+02 1.36838150e+02 1.36820007e+02 1.36822708e+02 1.36836517e+02 1.36840027e+02 1.36836472e+02
    1.36835220e+02 1.36835510e+02 1.36847534e+02 1.36861801e+02 1.36860733e+02 1.36849670e+02 1.36841599e+02 1.36844055e+02 1.36864380e+02 1.36883881e+02 1.36897720e+02 1.36883301e+02 1.36872009e+02 1.36873123e+02 1.36875732e+02 1.36887085e+02 1.36897888e+02 1.36907822e+02 1.36899155e+02 1.36886108e+02 1.36869141e+02 1.36865143e+02 1.36866653e+02 1.36880280e+02 1.36882111e+02 1.36886032e+02 1.36879333e+02 1.36867554e+02 1.36861725e+02 1.36853821e+02 1.36850876e+02 1.36844055e+02 1.36850174e+02 1.36871323e+02 1.36895767e+02 1.36887009e+02 1.36866318e+02 1.36838608e+02 1.36827911e+02 1.36824951e+02 1.36827255e+02 1.36834229e+02 1.36832581e+02 1.36823227e+02 1.36817902e+02 1.36812805e+02 1.36811325e+02 1.36804916e+02 1.36800323e+02 1.36801132e+02 1.36802689e+02 1.36803619e+02 1.36800491e+02 1.36798462e+02 1.36798264e+02 1.36798294e+02 1.36798309e+02 1.36798325e+02 1.36798401e+02 1.36799484e+02 1.36800385e+02 1.36802704e+02 1.36804367e+02 1.36806030e+02 1.36804138e+02 1.36802704e+02 1.36801270e+02 1.36802628e+02 1.36805130e+02 1.36810867e+02 1.36809555e+02 1.36805450e+02 1.36802002e+02 1.36800842e+02 1.36802795e+02 1.36803299e+02 1.36802887e+02 1.36800522e+02 1.36799591e+02 1.36800781e+02 1.36805237e+02 1.36810059e+02 1.36809982e+02 1.36805603e+02 1.36803329e+02 1.36802170e+02 1.36800385e+02 1.36798645e+02 1.36798523e+02 1.36800415e+02 1.36803024e+02 1.36805130e+02 1.36806778e+02 1.36811356e+02 1.36810425e+02 1.36805710e+02 1.36802963e+02 1.36802429e+02 1.36804153e+02 1.36807236e+02 1.36809402e+02 1.36805954e+02 1.36801590e+02 1.36799881e+02 1.36800171e+02 1.36800720e+02 1.36802963e+02 1.36805161e+02 1.36806335e+02 1.36803329e+02 1.36802841e+02 1.36806458e+02 1.36812744e+02 1.36815521e+02 1.36816437e+02 1.36816986e+02 1.36820877e+02 1.36826111e+02 1.36830353e+02 1.36828064e+02 1.36820099e+02 1.36817764e+02 1.36815216e+02 1.36808167e+02 1.36806030e+02 1.36807693e+02 1.36817413e+02 1.36818329e+02 1.36813141e+02 1.36811081e+02 1.36808548e+02 1.36813736e+02 1.36819199e+02 1.36822708e+02 1.36821045e+02 1.36816666e+02 1.36814926e+02 1.36816238e+02 1.36816803e+02 1.36820038e+02 1.36815430e+02 1.36807816e+02 1.36803574e+02 1.36806458e+02 1.36816833e+02 1.36830597e+02 1.36837723e+02 1.36828094e+02 1.36812485e+02 1.36804703e+02 1.36804718e+02 1.36808075e+02 1.36807678e+02 1.36804825e+02 1.36803207e+02 1.36802689e+02 1.36806274e+02 1.36819824e+02 1.36836090e+02 1.36835022e+02 1.36816711e+02 1.36810883e+02 1.36816772e+02 1.36831390e+02 1.36837860e+02 1.36822952e+02 1.36808365e+02 1.36800980e+02 1.36800369e+02 1.36804596e+02 1.36813416e+02 1.36820099e+02 1.36810989e+02 1.36800323e+02 1.36799515e+02 1.36805298e+02 1.36822281e+02 1.36814209e+02 1.36799088e+02 1.36798386e+02 1.36799011e+02 1.36812180e+02 1.36818726e+02 1.36814453e+02 1.36803116e+02 1.36799194e+02 1.36804581e+02 1.36803040e+02 1.36798355e+02 1.36801086e+02 1.36800369e+02 1.36799408e+02 1.36799179e+02 1.36800735e+02 1.36801788e+02 1.36800415e+02 1.36800980e+02 1.36799576e+02 1.36798248e+02 1.36799255e+02 1.36798798e+02 1.36798676e+02 1.36800507e+02 1.36799408e+02 1.36798309e+02 1.36799011e+02 1.36798691e+02 1.36798264e+02
    1.36504318e+02 1.36497345e+02 1.36500793e+02 1.36510544e+02 1.36521408e+02 1.36515594e+02 1.36520584e+02 1.36514877e+02 1.36512924e+02 1.36506226e+02 1.36512253e+02 1.36523453e+02 1.36524750e+02 1.36512985e+02 1.36498260e+02 1.36488266e+02 1.36485062e+02 1.36484116e+02 1.36490952e+02 1.36496536e+02 1.36489456e+02 1.36474686e+02 1.36466171e+02 1.36465256e+02 1.36465454e+02 1.36470276e+02 1.36474442e+02 1.36471603e+02 1.36468918e+02 1.36470734e+02 1.36468857e+02 1.36466141e+02 1.36465240e+02 1.36465378e+02 1.36465439e+02 1.36465561e+02 1.36465576e+02 1.36465820e+02 1.36465210e+02 1.36465271e+02 1.36465317e+02 1.36465485e+02 1.36465103e+02 1.36466431e+02 1.36466522e+02 1.36465454e+02 1.36465515e+02 1.36465393e+02 1.36465805e+02 1.36465927e+02 1.36465302e+02 1.36465973e+02 1.36465378e+02 1.36470673e+02 1.36482208e+02 1.36489685e+02 1.36485565e+02 1.36485611e+02 1.36497070e+02 1.36501129e+02 1.36515808e+02 1.36512497e+02 1.36513229e+02 1.36520355e+02 1.36517975e+02 1.36509415e+02 1.36495239e+02 1.36490723e+02 1.36499634e+02 1.36502380e+02 1.36507050e+02 1.36507065e+02 1.36509384e+02 1.36510269e+02 1.36503632e+02 1.36499222e+02 1.36491684e+02 1.36498596e+02 1.36509598e+02 1.36525497e+02 1.36523560e+02 1.36506134e+02 1.36494904e+02 1.36494156e+02 1.36501862e+02 1.36509491e+02 1.36511169e+02 1.36502090e+02 1.36494934e+02 1.36493591e+02 1.36499313e+02 1.36504471e+02 1.36511597e+02 1.36525360e+02 1.36537430e+02 1.36540070e+02 1.36528488e+02 1.36523468e+02 1.36521011e+02 1.36529617e+02 1.36521973e+02 1.36515106e+02 1.36497894e+02 1.36483459e+02 1.36474503e+02 1.36472870e+02 1.36476822e+02 1.36477783e+02 1.36473206e+02 1.36470749e+02 1.36471634e+02 1.36475525e+02 1.36475830e+02 1.36475204e+02 1.36472183e+02 1.36469650e+02 1.36468155e+02 1.36466690e+02 1.36466660e+02 1.36466446e+02 1.36466446e+02 1.36467712e+02 1.36468994e+02 1.36471054e+02 1.36470657e+02 1.36469162e+02 1.36468185e+02 1.36470764e+02 1.36483765e+02 1.36499619e+02 1.36500168e+02 1.36485336e+02 1.36476486e+02 1.36476364e+02 1.36476944e+02 1.36478027e+02 1.36479004e+02 1.36479004e+02 1.36479050e+02 1.36478424e+02 1.36487335e+02 1.36511353e+02 1.36526855e+02 1.36521469e+02 1.36499649e+02 1.36494019e+02 1.36494141e+02 1.36502563e+02 1.36517929e+02 1.36527512e+02 1.36519409e+02 1.36507339e+02 1.36512360e+02 1.36528290e+02 1.36532913e+02 1.36526245e+02 1.36526642e+02 1.36537567e+02 1.36545258e+02 1.36537277e+02 1.36533356e+02 1.36543198e+02 1.36556580e+02 1.36558228e+02 1.36553162e+02 1.36549301e+02 1.36552353e+02 1.36559280e+02 1.36569351e+02 1.36565216e+02 1.36562515e+02 1.36546234e+02 1.36545685e+02 1.36553604e+02 1.36562637e+02 1.36558487e+02 1.36537781e+02 1.36535477e+02 1.36555099e+02 1.36578293e+02 1.36580246e+02 1.36558960e+02 1.36548874e+02 1.36548355e+02 1.36554169e+02 1.36574844e+02 1.36604568e+02 1.36599197e+02 1.36564438e+02 1.36547577e+02 1.36548874e+02 1.36574005e+02 1.36589783e+02 1.36591339e+02 1.36571274e+02 1.36583572e+02 1.36598511e+02 1.36585373e+02 1.36561661e+02 1.36546555e+02 1.36550903e+02 1.36542923e+02 1.36538544e+02 1.36532211e+02 1.36538818e+02 1.36541840e+02 1.36540268e+02 1.36537033e+02
    1.35822739e+02 1.35811798e+02 1.35810425e+02 1.35816116e+02 1.35819336e+02 1.35816544e+02 1.35813522e+02 1.35812164e+02 1.35814346e+02 1.35819244e+02 1.35829239e+02 1.35836273e+02 1.35830902e+02 1.35824081e+02 1.35815353e+02 1.35815582e+02 1.35815033e+02 1.35813782e+02 1.35809708e+02 1.35807571e+02 1.35806808e+02 1.35806000e+02 1.35806030e+02 1.35807785e+02 1.35808670e+02 1.35805435e+02 1.35803467e+02 1.35803101e+02 1.35804047e+02 1.35805161e+02 1.35803864e+02 1.35804703e+02 1.35803848e+02 1.35803284e+02 1.35803619e+02 1.35803284e+02 1.35806808e+02 1.35812958e+02 1.35816254e+02 1.35812424e+02 1.35808273e+02 1.35804565e+02 1.35804184e+02 1.35805588e+02 1.35807648e+02 1.35810471e+02 1.35814224e+02 1.35816376e+02 1.35817001e+02 1.35810349e+02 1.35810074e+02 1.35811020e+02 1.35813873e+02 1.35813934e+02 1.35814133e+02 1.35816193e+02 1.35820786e+02 1.35820938e+02 1.35818832e+02 1.35821823e+02 1.35823044e+02 1.35832550e+02 1.35834091e+02 1.35833771e+02 1.35830978e+02 1.35826294e+02 1.35827454e+02 1.35833496e+02 1.35838760e+02 1.35839767e+02 1.35829651e+02 1.35824646e+02 1.35818573e+02 1.35814987e+02 1.35819901e+02 1.35828568e+02 1.35835526e+02 1.35822144e+02 1.35808090e+02 1.35804825e+02 1.35805283e+02 1.35809906e+02 1.35818497e+02 1.35813950e+02 1.35813370e+02 1.35804932e+02 1.35803513e+02 1.35803558e+02 1.35805313e+02 1.35803604e+02 1.35804138e+02 1.35804352e+02 1.35804062e+02 1.35803726e+02 1.35803207e+02 1.35804199e+02 1.35805374e+02 1.35806625e+02 1.35807617e+02 1.35807068e+02 1.35808472e+02 1.35808685e+02 1.35814667e+02 1.35822433e+02 1.35827957e+02 1.35824707e+02 1.35815765e+02 1.35810135e+02 1.35808029e+02 1.35807434e+02 1.35809662e+02 1.35812134e+02 1.35811234e+02 1.35808273e+02 1.35805618e+02 1.35803619e+02 1.35803757e+02 1.35803497e+02 1.35803650e+02 1.35803268e+02 1.35803543e+02 1.35804062e+02 1.35804459e+02 1.35805450e+02 1.35804916e+02 1.35804382e+02 1.35803864e+02 1.35803070e+02 1.35803009e+02 1.35803360e+02 1.35803574e+02 1.35804108e+02 1.35804031e+02 1.35803619e+02 1.35803421e+02 1.35804062e+02 1.35804550e+02 1.35804367e+02 1.35803894e+02 1.35804214e+02 1.35804672e+02 1.35806778e+02 1.35808350e+02 1.35812241e+02 1.35813782e+02 1.35815155e+02 1.35815491e+02 1.35811172e+02 1.35805328e+02 1.35803589e+02 1.35804596e+02 1.35806290e+02 1.35805740e+02 1.35804581e+02 1.35805374e+02 1.35808075e+02 1.35813629e+02 1.35822769e+02 1.35832214e+02 1.35829193e+02 1.35816330e+02 1.35808624e+02 1.35807205e+02 1.35809784e+02 1.35815384e+02 1.35808411e+02 1.35803940e+02 1.35805573e+02 1.35805435e+02 1.35803970e+02 1.35807861e+02 1.35816772e+02 1.35810745e+02 1.35803894e+02 1.35803543e+02 1.35805481e+02 1.35818130e+02 1.35810410e+02 1.35805984e+02 1.35818512e+02 1.35811493e+02 1.35804184e+02 1.35808960e+02 1.35810394e+02 1.35804962e+02 1.35807709e+02 1.35817307e+02 1.35814774e+02 1.35804596e+02 1.35803894e+02 1.35803986e+02 1.35806000e+02 1.35805405e+02 1.35803940e+02 1.35804535e+02 1.35805511e+02 1.35805710e+02 1.35803589e+02 1.35808151e+02 1.35819275e+02 1.35820480e+02 1.35810516e+02 1.35806198e+02 1.35811569e+02 1.35828033e+02 1.35843048e+02 1.35827042e+02 1.35811356e+02
    1.34910980e+02 1.34902664e+02 1.34893707e+02 1.34887650e+02 1.34882019e+02 1.34875687e+02 1.34867416e+02 1.34862274e+02 1.34856995e+02 1.34869690e+02 1.34874527e+02 1.34869537e+02 1.34855301e+02 1.34862747e+02 1.34859406e+02 1.34862442e+02 1.34852646e+02 1.34845749e+02 1.34835846e+02 1.34830566e+02 1.34824799e+02 1.34826096e+02 1.34832230e+02 1.34846130e+02 1.34848312e+02 1.34846512e+02 1.34852219e+02 1.34849564e+02 1.34838272e+02 1.34821671e+02 1.34820801e+02 1.34829758e+02 1.34837463e+02 1.34832748e+02 1.34825897e+02 1.34825089e+02 1.34831039e+02 1.34828934e+02 1.34818466e+02 1.34813461e+02 1.34813263e+02 1.34813843e+02 1.34813675e+02 1.34813400e+02 1.34813293e+02 1.34814697e+02 1.34817184e+02 1.34815338e+02 1.34814636e+02 1.34813721e+02 1.34813583e+02 1.34813614e+02 1.34812683e+02 1.34813278e+02 1.34813705e+02 1.34813629e+02 1.34813995e+02 1.34814758e+02 1.34817795e+02 1.34818893e+02 1.34820496e+02 1.34820526e+02 1.34818771e+02 1.34820267e+02 1.34819550e+02 1.34821640e+02 1.34821701e+02 1.34820053e+02 1.34817932e+02 1.34814590e+02 1.34815277e+02 1.34817978e+02 1.34823746e+02 1.34827362e+02 1.34825897e+02 1.34826874e+02 1.34828186e+02 1.34833725e+02 1.34835541e+02 1.34841217e+02 1.34839722e+02 1.34833954e+02 1.34827103e+02 1.34827209e+02 1.34831558e+02 1.34831848e+02 1.34830948e+02 1.34826965e+02 1.34827515e+02 1.34832367e+02 1.34831207e+02 1.34826523e+02 1.34821487e+02 1.34821442e+02 1.34826538e+02 1.34827744e+02 1.34828934e+02 1.34827332e+02 1.34828278e+02 1.34834305e+02 1.34832718e+02 1.34831345e+02 1.34821686e+02 1.34815186e+02 1.34813263e+02 1.34813416e+02 1.34813446e+02 1.34813171e+02 1.34813004e+02 1.34813522e+02 1.34813034e+02 1.34813828e+02 1.34813492e+02 1.34813721e+02 1.34813431e+02 1.34814392e+02 1.34816360e+02 1.34819366e+02 1.34821167e+02 1.34819244e+02 1.34815140e+02 1.34813446e+02 1.34813217e+02 1.34815063e+02 1.34818039e+02 1.34819092e+02 1.34819290e+02 1.34817352e+02 1.34816223e+02 1.34814392e+02 1.34815475e+02 1.34816833e+02 1.34816467e+02 1.34815994e+02 1.34816574e+02 1.34816559e+02 1.34815079e+02 1.34813446e+02 1.34814575e+02 1.34815903e+02 1.34816132e+02 1.34813965e+02 1.34813599e+02 1.34813782e+02 1.34814697e+02 1.34815201e+02 1.34817276e+02 1.34814438e+02 1.34812836e+02 1.34813095e+02 1.34813797e+02 1.34814667e+02 1.34814713e+02 1.34815735e+02 1.34814362e+02 1.34813797e+02 1.34814850e+02 1.34816391e+02 1.34817612e+02 1.34815430e+02 1.34814880e+02 1.34817688e+02 1.34821152e+02 1.34822327e+02 1.34816010e+02 1.34813751e+02 1.34814026e+02 1.34815903e+02 1.34819931e+02 1.34821686e+02 1.34823746e+02 1.34824051e+02 1.34822784e+02 1.34823868e+02 1.34824661e+02 1.34822495e+02 1.34820435e+02 1.34817276e+02 1.34817154e+02 1.34818665e+02 1.34820847e+02 1.34823395e+02 1.34823517e+02 1.34824570e+02 1.34822159e+02 1.34819031e+02 1.34819550e+02 1.34821075e+02 1.34822159e+02 1.34824188e+02 1.34820084e+02 1.34818634e+02 1.34817535e+02 1.34819397e+02 1.34822449e+02 1.34826263e+02 1.34835190e+02 1.34834106e+02 1.34825256e+02 1.34817062e+02 1.34815155e+02 1.34814987e+02 1.34814224e+02 1.34813385e+02 1.34813309e+02 1.34813461e+02 1.34814850e+02 1.34815292e+02
    1.33509995e+02 1.33518219e+02 1.33522461e+02 1.33515244e+02 1.33512451e+02 1.33512543e+02 1.33516144e+02 1.33515305e+02 1.33516541e+02 1.33518768e+02 1.33515137e+02 1.33504089e+02 1.33502472e+02 1.33510056e+02 1.33519562e+02 1.33514359e+02 1.33505569e+02 1.33503204e+02 1.33509476e+02 1.33518646e+02 1.33511612e+02 1.33504959e+02 1.33500320e+02 1.33501282e+02 1.33507095e+02 1.33518539e+02 1.33531250e+02 1.33529129e+02 1.33517075e+02 1.33511688e+02 1.33516876e+02 1.33531494e+02 1.33532043e+02 1.33521393e+02 1.33515854e+02 1.33519867e+02 1.33523941e+02 1.33523605e+02 1.33519012e+02 1.33516968e+02 1.33506363e+02 1.33496567e+02 1.33491379e+02 1.33490555e+02 1.33498459e+02 1.33503662e+02 1.33501358e+02 1.33491989e+02 1.33488190e+02 1.33488037e+02 1.33489227e+02 1.33492020e+02 1.33489883e+02 1.33487961e+02 1.33487625e+02 1.33487961e+02 1.33490448e+02 1.33492142e+02 1.33489120e+02 1.33488220e+02 1.33488266e+02 1.33487930e+02 1.33488235e+02 1.33488235e+02 1.33488327e+02 1.33488235e+02 1.33489532e+02 1.33490463e+02 1.33489670e+02 1.33488235e+02 1.33487900e+02 1.33487885e+02 1.33488022e+02 1.33488281e+02 1.33488464e+02 1.33487885e+02 1.33490051e+02 1.33489883e+02 1.33487915e+02 1.33488907e+02 1.33490509e+02 1.33488815e+02 1.33488541e+02 1.33488190e+02 1.33487808e+02 1.33489990e+02 1.33492981e+02 1.33494720e+02 1.33494629e+02 1.33490768e+02 1.33494354e+02 1.33498352e+02 1.33499023e+02 1.33497070e+02 1.33494293e+02 1.33497025e+02 1.33497879e+02 1.33499756e+02 1.33501297e+02 1.33499222e+02 1.33499786e+02 1.33500031e+02 1.33507263e+02 1.33514206e+02 1.33518021e+02 1.33512070e+02 1.33506912e+02 1.33501617e+02 1.33496262e+02 1.33491241e+02 1.33490555e+02 1.33491989e+02 1.33496994e+02 1.33503143e+02 1.33503738e+02 1.33496658e+02 1.33489075e+02 1.33488556e+02 1.33489288e+02 1.33492645e+02 1.33495056e+02 1.33498383e+02 1.33499756e+02 1.33492294e+02 1.33489120e+02 1.33487869e+02 1.33490158e+02 1.33491333e+02 1.33489517e+02 1.33488510e+02 1.33489517e+02 1.33487595e+02 1.33489273e+02 1.33488876e+02 1.33488129e+02 1.33490051e+02 1.33491257e+02 1.33490463e+02 1.33490692e+02 1.33489990e+02 1.33489731e+02 1.33489960e+02 1.33491226e+02 1.33496979e+02 1.33496536e+02 1.33495575e+02 1.33492477e+02 1.33493744e+02 1.33490112e+02 1.33489029e+02 1.33489670e+02 1.33492188e+02 1.33491196e+02 1.33488358e+02 1.33488953e+02 1.33489655e+02 1.33490158e+02 1.33489243e+02 1.33489365e+02 1.33491989e+02 1.33489944e+02 1.33488251e+02 1.33488480e+02 1.33488312e+02 1.33488037e+02 1.33489258e+02 1.33489319e+02 1.33490311e+02 1.33489014e+02 1.33488754e+02 1.33488419e+02 1.33491745e+02 1.33492767e+02 1.33489044e+02 1.33488266e+02 1.33487991e+02 1.33489243e+02 1.33487991e+02 1.33490097e+02 1.33497635e+02 1.33494324e+02 1.33488907e+02 1.33488434e+02 1.33489929e+02 1.33492096e+02 1.33492294e+02 1.33490784e+02 1.33489487e+02 1.33489853e+02 1.33491638e+02 1.33492844e+02 1.33493698e+02 1.33492020e+02 1.33490005e+02 1.33488571e+02 1.33488098e+02 1.33488083e+02 1.33487885e+02 1.33488953e+02 1.33490387e+02 1.33490372e+02 1.33489655e+02 1.33492142e+02 1.33498611e+02 1.33507385e+02 1.33515182e+02 1.33506210e+02 1.33493652e+02
    1.31855637e+02 1.31850845e+02 1.31849030e+02 1.31850433e+02 1.31850723e+02 1.31849197e+02 1.31848526e+02 1.31849197e+02 1.31850204e+02 1.31850494e+02 1.31849350e+02 1.31848190e+02 1.31848175e+02 1.31848358e+02 1.31848938e+02 1.31852783e+02 1.31855637e+02 1.31862152e+02 1.31863159e+02 1.31864227e+02 1.31862152e+02 1.31864075e+02 1.31867645e+02 1.31869934e+02 1.31870850e+02 1.31866928e+02 1.31853897e+02 1.31849762e+02 1.31849533e+02 1.31854874e+02 1.31860489e+02 1.31861511e+02 1.31861938e+02 1.31869400e+02 1.31870743e+02 1.31871460e+02 1.31868454e+02 1.31871353e+02 1.31882996e+02 1.31896347e+02 1.31909332e+02 1.31899231e+02 1.31895248e+02 1.31882034e+02 1.31869034e+02 1.31859360e+02 1.31855408e+02 1.31856689e+02 1.31858124e+02 1.31858856e+02 1.31860031e+02 1.31862503e+02 1.31862000e+02 1.31857193e+02 1.31855179e+02 1.31856674e+02 1.31859909e+02 1.31857834e+02 1.31853287e+02 1.31850357e+02 1.31848618e+02 1.31849304e+02 1.31850067e+02 1.31851395e+02 1.31854233e+02 1.31860382e+02 1.31858231e+02 1.31851883e+02 1.31847946e+02 1.31849136e+02 1.31849426e+02 1.31853317e+02 1.31854584e+02 1.31850876e+02 1.31849442e+02 1.31851364e+02 1.31858459e+02 1.31862488e+02 1.31856079e+02 1.31850281e+02 1.31848282e+02 1.31848373e+02 1.31848846e+02 1.31849182e+02 1.31848984e+02 1.31848495e+02 1.31848312e+02 1.31847900e+02 1.31848801e+02 1.31848511e+02 1.31848328e+02 1.31848663e+02 1.31848618e+02 1.31848480e+02 1.31848938e+02 1.31851196e+02 1.31850189e+02 1.31851364e+02 1.31852020e+02 1.31851761e+02 1.31852844e+02 1.31851685e+02 1.31854401e+02 1.31856781e+02 1.31858902e+02 1.31855515e+02 1.31851562e+02 1.31851791e+02 1.31852921e+02 1.31852692e+02 1.31851379e+02 1.31852905e+02 1.31856583e+02 1.31863907e+02 1.31878815e+02 1.31884567e+02 1.31880463e+02 1.31871689e+02 1.31871857e+02 1.31881073e+02 1.31885620e+02 1.31887161e+02 1.31886948e+02 1.31884399e+02 1.31880737e+02 1.31874405e+02 1.31872589e+02 1.31872284e+02 1.31864990e+02 1.31861679e+02 1.31865524e+02 1.31877838e+02 1.31881378e+02 1.31872665e+02 1.31866180e+02 1.31861160e+02 1.31857162e+02 1.31856003e+02 1.31858521e+02 1.31862656e+02 1.31859207e+02 1.31852112e+02 1.31851013e+02 1.31851410e+02 1.31854843e+02 1.31861588e+02 1.31873764e+02 1.31874542e+02 1.31863510e+02 1.31854294e+02 1.31851181e+02 1.31849823e+02 1.31850266e+02 1.31849503e+02 1.31849503e+02 1.31848679e+02 1.31848511e+02 1.31848419e+02 1.31848770e+02 1.31849335e+02 1.31848709e+02 1.31848663e+02 1.31848663e+02 1.31849060e+02 1.31850479e+02 1.31850021e+02 1.31849106e+02 1.31848129e+02 1.31847778e+02 1.31848038e+02 1.31848785e+02 1.31849380e+02 1.31848740e+02 1.31849152e+02 1.31848801e+02 1.31848984e+02 1.31849487e+02 1.31850250e+02 1.31851151e+02 1.31850113e+02 1.31849106e+02 1.31849426e+02 1.31850189e+02 1.31849960e+02 1.31848816e+02 1.31848999e+02 1.31848312e+02 1.31848526e+02 1.31849045e+02 1.31848511e+02 1.31847946e+02 1.31848984e+02 1.31849594e+02 1.31850998e+02 1.31849274e+02 1.31849472e+02 1.31847900e+02 1.31848434e+02 1.31848648e+02 1.31848679e+02 1.31849167e+02 1.31850571e+02 1.31855713e+02 1.31860229e+02 1.31856110e+02 1.31849533e+02 1.31847717e+02 1.31848465e+02
    1.29916290e+02 1.29916367e+02 1.29916046e+02 1.29917892e+02 1.29920624e+02 1.29923737e+02 1.29930878e+02 1.29927933e+02 1.29918640e+02 1.29916000e+02 1.29915146e+02 1.29916580e+02 1.29916428e+02 1.29916306e+02 1.29917801e+02 1.29916687e+02 1.29915802e+02 1.29917236e+02 1.29915161e+02 1.29915436e+02 1.29916397e+02 1.29916534e+02 1.29920654e+02 1.29920731e+02 1.29916000e+02 1.29914963e+02 1.29915634e+02 1.29918579e+02 1.29921646e+02 1.29922104e+02 1.29922729e+02 1.29922867e+02 1.29924179e+02 1.29928711e+02 1.29930618e+02 1.29931564e+02 1.29930161e+02 1.29929352e+02 1.29931290e+02 1.29930862e+02 1.29935669e+02 1.29941132e+02 1.29943176e+02 1.29943512e+02 1.29934830e+02 1.29931076e+02 1.29927261e+02 1.29930954e+02 1.29943085e+02 1.29949295e+02 1.29944580e+02 1.29931793e+02 1.29931412e+02 1.29934601e+02 1.29931854e+02 1.29928375e+02 1.29924774e+02 1.29928482e+02 1.29932785e+02 1.29943481e+02 1.29953140e+02 1.29948807e+02 1.29935638e+02 1.29930786e+02 1.29931442e+02 1.29930756e+02 1.29925507e+02 1.29922577e+02 1.29924438e+02 1.29928345e+02 1.29930099e+02 1.29927887e+02 1.29927689e+02 1.29933517e+02 1.29934616e+02 1.29932327e+02 1.29923218e+02 1.29921188e+02 1.29922150e+02 1.29927032e+02 1.29934021e+02 1.29935257e+02 1.29936920e+02 1.29935303e+02 1.29930023e+02 1.29928116e+02 1.29928925e+02 1.29925217e+02 1.29920319e+02 1.29916565e+02 1.29917068e+02 1.29918381e+02 1.29919464e+02 1.29920013e+02 1.29918579e+02 1.29917587e+02 1.29916397e+02 1.29915634e+02 1.29915833e+02 1.29915497e+02 1.29914169e+02 1.29915604e+02 1.29916855e+02 1.29917297e+02 1.29915802e+02 1.29915588e+02 1.29915894e+02 1.29916443e+02 1.29918488e+02 1.29920624e+02 1.29925659e+02 1.29925659e+02 1.29921204e+02 1.29915665e+02 1.29915222e+02 1.29916870e+02 1.29921661e+02 1.29923523e+02 1.29920288e+02 1.29917831e+02 1.29916687e+02 1.29914917e+02 1.29915543e+02 1.29921005e+02 1.29929184e+02 1.29930969e+02 1.29924484e+02 1.29921509e+02 1.29924698e+02 1.29933609e+02 1.29938171e+02 1.29938049e+02 1.29931259e+02 1.29933960e+02 1.29938782e+02 1.29945694e+02 1.29954422e+02 1.29953232e+02 1.29952713e+02 1.29949921e+02 1.29941406e+02 1.29931931e+02 1.29927505e+02 1.29943192e+02 1.29952362e+02 1.29953323e+02 1.29941177e+02 1.29942505e+02 1.29934586e+02 1.29935669e+02 1.29935669e+02 1.29943115e+02 1.29939529e+02 1.29927994e+02 1.29924118e+02 1.29922852e+02 1.29921936e+02 1.29921066e+02 1.29923080e+02 1.29927841e+02 1.29927017e+02 1.29925247e+02 1.29925430e+02 1.29926697e+02 1.29925385e+02 1.29922150e+02 1.29919708e+02 1.29918625e+02 1.29919144e+02 1.29917511e+02 1.29919754e+02 1.29924988e+02 1.29923630e+02 1.29920044e+02 1.29919846e+02 1.29921982e+02 1.29922913e+02 1.29918839e+02 1.29915665e+02 1.29915558e+02 1.29917953e+02 1.29926910e+02 1.29922745e+02 1.29918411e+02 1.29916031e+02 1.29916443e+02 1.29917206e+02 1.29917130e+02 1.29917297e+02 1.29917068e+02 1.29916183e+02 1.29915451e+02 1.29915558e+02 1.29915817e+02 1.29915451e+02 1.29915604e+02 1.29916519e+02 1.29918030e+02 1.29917114e+02 1.29915527e+02 1.29916534e+02 1.29917435e+02 1.29917709e+02 1.29916306e+02 1.29915588e+02 1.29917694e+02 1.29916504e+02 1.29914658e+02
    3.87507050e+02 3.87512665e+02 3.87517944e+02 3.87538452e+02 3.87561646e+02 3.87566376e+02 3.87562622e+02 3.87550598e+02 3.87529785e+02 3.87516602e+02 3.87507629e+02 3.87518555e+02 3.87512421e+02 3.87506714e+02 3.87515167e+02 3.87511322e+02 3.87511993e+02 3.87508514e+02 3.87519073e+02 3.87513794e+02 3.87514648e+02 3.87517853e+02 3.87514984e+02 3.87518341e+02 3.87528534e+02 3.87529236e+02 3.87508972e+02 3.87513306e+02 3.87523560e+02 3.87526276e+02 3.87522125e+02 3.87520386e+02 3.87519623e+02 3.87514160e+02 3.87515808e+02 3.87512878e+02 3.87513489e+02 3.87515930e+02 3.87518555e+02 3.87523926e+02 3.87513245e+02 3.87509918e+02 3.87515106e+02 3.87515808e+02 3.87534576e+02 3.87541870e+02 3.87532745e+02 3.87511780e+02 3.87522339e+02 3.87526031e+02 3.87537628e+02 3.87519073e+02 3.87526276e+02 3.87523682e+02 3.87511475e+02 3.87511200e+02 3.87514099e+02 3.87525452e+02 3.87534027e+02 3.87566986e+02 3.87576447e+02 3.87567474e+02 3.87544586e+02 3.87517975e+02 3.87510773e+02 3.87516266e+02 3.87510529e+02 3.87524994e+02 3.87532471e+02 3.87540924e+02 3.87525085e+02 3.87511658e+02 3.87525146e+02 3.87543152e+02 3.87550262e+02 3.87541809e+02 3.87525299e+02 3.87531403e+02 3.87524475e+02 3.87543701e+02 3.87583313e+02 3.87593658e+02 3.87592224e+02 3.87566498e+02 3.87560242e+02 3.87549225e+02 3.87555115e+02 3.87563354e+02 3.87546356e+02 3.87519196e+02 3.87511169e+02 3.87516418e+02 3.87519379e+02 3.87517731e+02 3.87533813e+02 3.87531708e+02 3.87522614e+02 3.87522095e+02 3.87522034e+02 3.87520782e+02 3.87523956e+02 3.87529999e+02 3.87533539e+02 3.87526794e+02 3.87519745e+02 3.87514313e+02 3.87514648e+02 3.87513580e+02 3.87517853e+02 3.87510254e+02 3.87522064e+02 3.87514954e+02 3.87505890e+02 3.87505768e+02 3.87510284e+02 3.87509613e+02 3.87507416e+02 3.87506897e+02 3.87518829e+02 3.87513428e+02 3.87516357e+02 3.87522827e+02 3.87517883e+02 3.87516418e+02 3.87518951e+02 3.87508362e+02 3.87520630e+02 3.87515930e+02 3.87513855e+02 3.87514984e+02 3.87515503e+02 3.87510925e+02 3.87509521e+02 3.87517029e+02 3.87520996e+02 3.87526886e+02 3.87530853e+02 3.87538940e+02 3.87543945e+02 3.87557709e+02 3.87545990e+02 3.87557220e+02 3.87536285e+02 3.87548676e+02 3.87544281e+02 3.87531952e+02 3.87515228e+02 3.87520996e+02 3.87519867e+02 3.87525574e+02 3.87533997e+02 3.87530548e+02 3.87526398e+02 3.87521393e+02 3.87511078e+02 3.87518921e+02 3.87517639e+02 3.87536194e+02 3.87526978e+02 3.87529541e+02 3.87541321e+02 3.87537872e+02 3.87539154e+02 3.87531250e+02 3.87549377e+02 3.87538788e+02 3.87538483e+02 3.87520111e+02 3.87523560e+02 3.87520813e+02 3.87518372e+02 3.87523773e+02 3.87510742e+02 3.87516174e+02 3.87514099e+02 3.87523407e+02 3.87538666e+02 3.87534149e+02 3.87525055e+02 3.87525299e+02 3.87539368e+02 3.87540558e+02 3.87527100e+02 3.87523285e+02 3.87514130e+02 3.87518555e+02 3.87527161e+02 3.87525604e+02 3.87523376e+02 3.87530029e+02 3.87516510e+02 3.87513153e+02 3.87517059e+02 3.87515350e+02 3.87519409e+02 3.87518799e+02 3.87509613e+02 3.87513855e+02 3.87517731e+02 3.87512726e+02 3.87514618e+02 3.87506683e+02 3.87516266e+02 3.87516693e+02 3.87512482e+02 3.87505951e+02 3.87502136e+02 3.87513794e+02</data></ring16_8>
</opencv_storage>
