<?xml version="1.0"?>
<opencv_storage>
<ring16_4 type_id="opencv-matrix">
  <rows>16</rows>
  <cols>208</cols>
  <dt>f</dt>
  <data>
    5.19053662e+03 5.49194678e+03 5.38470068e+03 5.46691064e+03 5.36231982e+03 5.27662109e+03 5.50046582e+03 5.54076562e+03 5.69571924e+03 5.71776953e+03 5.73482178e+03 5.73373584e+03 5.70053223e+03 5.92066406e+03 5.99497266e+03 6.02596240e+03 5.91246436e+03 5.89727002e+03 6.10610156e+03 6.20289600e+03 6.43012207e+03 6.41519336e+03 6.26583447e+03 6.16288672e+03 6.06253613e+03 6.37777881e+03 6.66448584e+03 6.58310791e+03 6.83122217e+03 6.69857861e+03 6.49989648e+03 6.76402441e+03 6.83951074e+03 7.04497803e+03 6.93737744e+03 6.85974561e+03 6.89432031e+03 6.97607812e+03 7.31349707e+03 7.35177686e+03 7.22439600e+03 7.09502686e+03 7.17233691e+03 7.28312793e+03 7.08103955e+03 7.47819092e+03 7.97923682e+03 7.74568750e+03 7.37876318e+03 7.27043652e+03 7.72114404e+03 8.10902295e+03 7.91334082e+03 7.88840381e+03 7.73296777e+03 7.73760205e+03 8.03571094e+03 8.11329883e+03 8.38346777e+03 8.24551758e+03 8.06560010e+03 8.09185986e+03 7.90860498e+03 8.41818750e+03 8.74450879e+03 8.63436914e+03 8.64878516e+03 8.61460254e+03 8.27795215e+03 8.07877197e+03 8.72254004e+03 9.31694434e+03 9.01989160e+03 8.59877930e+03 8.40137402e+03 8.94852539e+03 9.32974219e+03 9.03972363e+03 9.31186914e+03 9.37138086e+03 9.01330078e+03 8.74640039e+03 9.22088379e+03 9.92479980e+03 9.69214941e+03 9.40581641e+03 9.18574121e+03 9.18398730e+03 9.48792578e+03 9.63690723e+03 1.00296533e+04 1.00975908e+04 9.77751172e+03 9.51337793e+03 9.30380664e+03 9.87296289e+03 1.05949844e+04 1.02929854e+04 9.70571777e+03 9.49840625e+03 1.01197256e+04 1.07256484e+04 1.04428604e+04 1.02376680e+04 1.03498027e+04 1.01754541e+04 9.84118359e+03 1.04169951e+04 1.11957705e+04 1.09288926e+04 1.06502588e+04 1.03137412e+04 1.02449961e+04 1.09962764e+04 1.12204199e+04 1.08708496e+04 1.08391973e+04 1.09208301e+04 1.06737617e+04 1.03562344e+04 1.08505820e+04 1.15257969e+04 1.16020527e+04 1.11851426e+04 1.06629990e+04 1.09042520e+04 1.12966240e+04 1.16256768e+04 1.16932227e+04 1.10543428e+04 1.10918555e+04 1.15709863e+04 1.15912021e+04 1.15687061e+04 1.17465400e+04 1.21694033e+04 1.18807129e+04 1.12435176e+04 1.15770527e+04 1.19166816e+04 1.23502119e+04 1.21454883e+04 1.17420781e+04 1.19841436e+04 1.15927881e+04 1.19551973e+04 1.26275068e+04 1.23418291e+04 1.25096406e+04 1.21075332e+04 1.14903193e+04 1.19223291e+04 1.27561328e+04 1.27469238e+04 1.19561348e+04 1.23624014e+04 1.28440879e+04 1.24591816e+04 1.25271582e+04 1.23852451e+04 1.27992529e+04 1.28787314e+04 1.21174443e+04 1.23603223e+04 1.27325400e+04 1.31663525e+04 1.32242979e+04 1.28249609e+04 1.27791309e+04 1.24054072e+04 1.24605371e+04 1.31331123e+04 1.36521699e+04 1.32654658e+04 1.24401064e+04 1.26008906e+04 1.30431055e+04 1.35602695e+04 1.35983779e+04 1.27684912e+04 1.32359043e+04 1.36994004e+04 1.32055195e+04 1.33248711e+04 1.31069922e+04 1.34684854e+04 1.36585420e+04 1.29734150e+04 1.31810596e+04 1.35925977e+04 1.36579688e+04 1.32752451e+04 1.36798408e+04 1.40354121e+04 1.30914170e+04 1.35148174e+04 1.41027275e+04 1.36420410e+04 1.36339102e+04 1.31864424e+04 1.31960469e+04 1.38085029e+04 1.38424297e+04 1.38331250e+04 1.38586582e+04 1.43926094e+04 1.44157764e+04 1.34013350e+04
    5.15598877e+03 5.44997461e+03 5.29029883e+03 5.41000488e+03 5.32225342e+03 5.24552539e+03 5.47535498e+03 5.52063330e+03 5.65498730e+03 5.64253809e+03 5.67232422e+03 5.68179590e+03 5.63377344e+03 5.87843213e+03 5.96962354e+03 5.96133398e+03 5.86842822e+03 5.86120557e+03 6.08263379e+03 6.12846973e+03 6.34485010e+03 6.38952832e+03 6.24139160e+03 6.14059326e+03 6.00353613e+03 6.34748242e+03 6.61545410e+03 6.53743848e+03 6.81177148e+03 6.64772510e+03 6.45525830e+03 6.73618115e+03 6.79760791e+03 6.97797852e+03 6.90566895e+03 6.82069971e+03 6.85839160e+03 6.92938574e+03 7.27335840e+03 7.27412158e+03 7.14983057e+03 7.11308398e+03 7.11004785e+03 7.19473047e+03 7.07004834e+03 7.44836963e+03 7.91873389e+03 7.70395166e+03 7.39324561e+03 7.22278662e+03 7.62363672e+03 8.02865527e+03 7.87250537e+03 7.84096680e+03 7.69996631e+03 7.74868311e+03 7.95427002e+03 8.07856982e+03 8.26924512e+03 8.20764648e+03 8.04214941e+03 8.08673682e+03 7.90955908e+03 8.31341113e+03 8.71125488e+03 8.59805859e+03 8.59871191e+03 8.57740039e+03 8.27130273e+03 8.11259473e+03 8.68998633e+03 9.21413867e+03 8.98744922e+03 8.60910938e+03 8.36460254e+03 8.85569922e+03 9.22096484e+03 8.94418066e+03 9.22508789e+03 9.31396875e+03 8.97570117e+03 8.76520703e+03 9.16823730e+03 9.77925488e+03 9.58231641e+03 9.34916309e+03 9.16759863e+03 9.13558496e+03 9.41244141e+03 9.55523535e+03 1.00102002e+04 1.00610879e+04 9.73490332e+03 9.45093555e+03 9.23350293e+03 9.84762891e+03 1.05622119e+04 1.02557900e+04 9.62380371e+03 9.39843457e+03 1.01024844e+04 1.08218467e+04 1.04259697e+04 1.01951934e+04 1.02457090e+04 1.00575605e+04 9.72545117e+03 1.03972793e+04 1.11721211e+04 1.08735283e+04 1.06242549e+04 1.02509014e+04 1.01324941e+04 1.09724863e+04 1.11733975e+04 1.08135186e+04 1.08114082e+04 1.08727764e+04 1.05891914e+04 1.01897002e+04 1.07375537e+04 1.15481240e+04 1.16115234e+04 1.10407354e+04 1.05196309e+04 1.08344482e+04 1.12526709e+04 1.15911475e+04 1.16694814e+04 1.09971650e+04 1.10602451e+04 1.15314580e+04 1.15706035e+04 1.15447500e+04 1.16314033e+04 1.21318057e+04 1.18155273e+04 1.11835029e+04 1.15167725e+04 1.18530977e+04 1.22991104e+04 1.21206758e+04 1.17379238e+04 1.19080645e+04 1.14821768e+04 1.19058564e+04 1.25268477e+04 1.22110146e+04 1.24695234e+04 1.20514287e+04 1.13967900e+04 1.18521084e+04 1.26979795e+04 1.26627178e+04 1.19187803e+04 1.23306611e+04 1.27763369e+04 1.23677324e+04 1.24361338e+04 1.23256934e+04 1.27870479e+04 1.27563525e+04 1.19842666e+04 1.22790342e+04 1.27307852e+04 1.30931318e+04 1.31874414e+04 1.28140498e+04 1.27093301e+04 1.22803789e+04 1.23557305e+04 1.30833271e+04 1.36642852e+04 1.31961357e+04 1.22804893e+04 1.24738086e+04 1.30096260e+04 1.35328203e+04 1.35995840e+04 1.27768789e+04 1.31571104e+04 1.35599004e+04 1.31302480e+04 1.32268828e+04 1.30500957e+04 1.34382666e+04 1.35726768e+04 1.29132461e+04 1.31215693e+04 1.35286074e+04 1.36266455e+04 1.32100762e+04 1.35469033e+04 1.38826455e+04 1.30916543e+04 1.34869336e+04 1.40114141e+04 1.36105713e+04 1.35810742e+04 1.31843691e+04 1.32131035e+04 1.37407568e+04 1.37814004e+04 1.37687480e+04 1.37786182e+04 1.42521338e+04 1.42772881e+04 1.33742852e+04
    5.12338281e+03 5.35305273e+03 5.21835596e+03 5.32947852e+03 5.24826904e+03 5.17860059e+03 5.34920410e+03 5.43279639e+03 5.59648535e+03 5.54934521e+03 5.60035596e+03 5.60552734e+03 5.54823242e+03 5.79105078e+03 5.88699756e+03 5.88431055e+03 5.76836572e+03 5.76693750e+03 5.98222559e+03 6.04787891e+03 6.21939746e+03 6.26573877e+03 6.14301953e+03 6.02879785e+03 5.91627051e+03 6.26291797e+03 6.54660986e+03 6.43918604e+03 6.65495117e+03 6.49904395e+03 6.35723779e+03 6.65517334e+03 6.74970264e+03 6.85723242e+03 6.80177686e+03 6.75603760e+03 6.73620557e+03 6.75923779e+03 7.10035791e+03 7.18877588e+03 7.08079980e+03 6.97521289e+03 7.07347070e+03 7.08583350e+03 6.97763770e+03 7.28779102e+03 7.83733398e+03 7.64889014e+03 7.26654248e+03 7.07798291e+03 7.53450537e+03 7.89658740e+03 7.71520654e+03 7.71704980e+03 7.55280225e+03 7.59964404e+03 7.89151904e+03 7.93032275e+03 8.18400586e+03 8.07524951e+03 8.00120605e+03 7.98569092e+03 7.83299023e+03 8.22783203e+03 8.55592969e+03 8.41624707e+03 8.44791895e+03 8.46159277e+03 8.20796289e+03 8.06331982e+03 8.53114258e+03 9.00947656e+03 8.82095117e+03 8.52388672e+03 8.28629980e+03 8.82495508e+03 9.04326562e+03 8.86851172e+03 9.11626465e+03 9.19966797e+03 8.84282227e+03 8.61384570e+03 9.07982715e+03 9.70058105e+03 9.45991895e+03 9.22503027e+03 8.99722754e+03 9.02467871e+03 9.31652734e+03 9.45410352e+03 9.81070312e+03 9.90067578e+03 9.60752344e+03 9.27129785e+03 9.09502441e+03 9.70387109e+03 1.03778857e+04 1.01082100e+04 9.58849316e+03 9.32421484e+03 9.94414746e+03 1.05448896e+04 1.02455176e+04 1.00384980e+04 1.01096768e+04 9.97389941e+03 9.70293652e+03 1.02958926e+04 1.09155156e+04 1.06016543e+04 1.04131973e+04 1.01444990e+04 1.01370410e+04 1.08322373e+04 1.09036182e+04 1.06205244e+04 1.06683076e+04 1.06622227e+04 1.04343262e+04 1.01651650e+04 1.06979199e+04 1.13328027e+04 1.13391436e+04 1.09237607e+04 1.04738760e+04 1.07034736e+04 1.10686768e+04 1.13598369e+04 1.14354795e+04 1.08905039e+04 1.09728252e+04 1.13114395e+04 1.12890742e+04 1.13093984e+04 1.15007939e+04 1.19590420e+04 1.16345049e+04 1.10998672e+04 1.13972666e+04 1.16019844e+04 1.19976221e+04 1.18230010e+04 1.15717471e+04 1.17602979e+04 1.13521699e+04 1.17993770e+04 1.23159248e+04 1.19322227e+04 1.21943057e+04 1.19361611e+04 1.13843408e+04 1.16875781e+04 1.24151035e+04 1.24666475e+04 1.17986250e+04 1.21517256e+04 1.25140244e+04 1.22060254e+04 1.22464512e+04 1.21375146e+04 1.26234326e+04 1.25715957e+04 1.18864512e+04 1.21460996e+04 1.24903125e+04 1.28737217e+04 1.29680479e+04 1.26714482e+04 1.25336924e+04 1.21355225e+04 1.22752207e+04 1.28986357e+04 1.33544893e+04 1.29396904e+04 1.21867871e+04 1.24203164e+04 1.28548096e+04 1.32856592e+04 1.32857100e+04 1.25435537e+04 1.29059277e+04 1.32674316e+04 1.29961387e+04 1.31686758e+04 1.28523213e+04 1.31419727e+04 1.33649268e+04 1.28429473e+04 1.30103896e+04 1.33715615e+04 1.33062012e+04 1.29089004e+04 1.33634404e+04 1.36717783e+04 1.29461533e+04 1.33868135e+04 1.37857861e+04 1.34032021e+04 1.33902217e+04 1.29560791e+04 1.30297852e+04 1.35130156e+04 1.35417920e+04 1.35579053e+04 1.35616211e+04 1.40128281e+04 1.40102627e+04 1.31805000e+04
    5.04369092e+03 5.24294287e+03 5.15177002e+03 5.31130127e+03 5.19776660e+03 5.14670215e+03 5.30369043e+03 5.39151025e+03 5.51916553e+03 5.46976172e+03 5.50618066e+03 5.54041162e+03 5.48188770e+03 5.73192090e+03 5.81006494e+03 5.80453809e+03 5.69427002e+03 5.72311377e+03 5.93270166e+03 5.97192871e+03 6.13363379e+03 6.17578906e+03 6.09364648e+03 6.00856934e+03 5.86799463e+03 6.24083398e+03 6.44382373e+03 6.36379053e+03 6.55704883e+03 6.37704590e+03 6.29020947e+03 6.55152344e+03 6.64103027e+03 6.78373633e+03 6.71440381e+03 6.64834521e+03 6.67834619e+03 6.70495020e+03 7.08154297e+03 7.12814160e+03 6.94943994e+03 6.86453760e+03 6.93745654e+03 7.03892041e+03 6.86848438e+03 7.28058838e+03 7.68944824e+03 7.54942480e+03 7.14354150e+03 6.96483154e+03 7.47606836e+03 7.82435693e+03 7.66600537e+03 7.61371094e+03 7.46271924e+03 7.49725146e+03 7.79029834e+03 7.82642676e+03 8.02777686e+03 7.94930957e+03 7.88956250e+03 7.89723438e+03 7.78268311e+03 8.06462695e+03 8.42528516e+03 8.31425586e+03 8.34102637e+03 8.35621191e+03 8.17075586e+03 8.03117969e+03 8.43291309e+03 8.78963770e+03 8.65468359e+03 8.44323340e+03 8.27742773e+03 8.68782422e+03 8.88892773e+03 8.73217969e+03 9.02911816e+03 9.03777344e+03 8.75621973e+03 8.59594531e+03 8.95827637e+03 9.44589844e+03 9.28235254e+03 9.12999902e+03 8.92375781e+03 8.93861719e+03 9.17871094e+03 9.34606836e+03 9.72747168e+03 9.75999316e+03 9.45322363e+03 9.19648926e+03 9.05985449e+03 9.62885059e+03 1.02097939e+04 1.00227891e+04 9.48501074e+03 9.25245117e+03 9.82758789e+03 1.04085225e+04 1.01408203e+04 9.91216797e+03 9.98049414e+03 9.85238574e+03 9.61217773e+03 1.02221582e+04 1.07753965e+04 1.04459199e+04 1.03183877e+04 1.00313672e+04 1.00503643e+04 1.07118438e+04 1.06969551e+04 1.04401689e+04 1.05809580e+04 1.05798291e+04 1.02920166e+04 1.00817363e+04 1.05864326e+04 1.11915176e+04 1.11960420e+04 1.07395586e+04 1.03358164e+04 1.06039248e+04 1.09467266e+04 1.12333545e+04 1.12957803e+04 1.07965371e+04 1.09142344e+04 1.11848838e+04 1.11429854e+04 1.12012363e+04 1.13659902e+04 1.17453398e+04 1.14405371e+04 1.09788877e+04 1.12532793e+04 1.14989229e+04 1.18468652e+04 1.16144697e+04 1.14377715e+04 1.16647949e+04 1.12825439e+04 1.16731621e+04 1.21284150e+04 1.17725811e+04 1.19883271e+04 1.17682480e+04 1.13156572e+04 1.15877373e+04 1.22384561e+04 1.23298066e+04 1.16953174e+04 1.20244873e+04 1.23470762e+04 1.20641709e+04 1.20726797e+04 1.19927812e+04 1.24674707e+04 1.23666270e+04 1.17362051e+04 1.19956162e+04 1.22869424e+04 1.26723037e+04 1.28468828e+04 1.25532236e+04 1.23604609e+04 1.20039736e+04 1.21909023e+04 1.27687031e+04 1.31647100e+04 1.27498418e+04 1.20445186e+04 1.22923750e+04 1.26894951e+04 1.31122666e+04 1.31234023e+04 1.24297441e+04 1.27457871e+04 1.30094326e+04 1.28251650e+04 1.29674395e+04 1.26817324e+04 1.29787832e+04 1.32087432e+04 1.27739961e+04 1.28712070e+04 1.31794922e+04 1.31405684e+04 1.28082910e+04 1.31863008e+04 1.34497217e+04 1.28703428e+04 1.32537979e+04 1.35643906e+04 1.32325303e+04 1.32344668e+04 1.28605273e+04 1.29489541e+04 1.33389570e+04 1.34207295e+04 1.34179424e+04 1.33829922e+04 1.37478438e+04 1.37235762e+04 1.30997715e+04
    4.99689355e+03 5.18240430e+03 5.11583643e+03 5.23384961e+03 5.15769727e+03 5.09213477e+03 5.25833496e+03 5.34530811e+03 5.44021338e+03 5.44044238e+03 5.46438525e+03 5.49827490e+03 5.44880713e+03 5.69814307e+03 5.71080029e+03 5.76120020e+03 5.67942627e+03 5.67369922e+03 5.86313916e+03 5.89771143e+03 6.01954688e+03 6.13993750e+03 6.04835010e+03 5.94961182e+03 5.86617236e+03 6.18448291e+03 6.35282031e+03 6.26814893e+03 6.50230078e+03 6.33249902e+03 6.24168018e+03 6.51761475e+03 6.57723389e+03 6.70092578e+03 6.65844775e+03 6.59679053e+03 6.64615576e+03 6.69243359e+03 6.96329883e+03 7.04454346e+03 6.88585645e+03 6.79983057e+03 6.85804541e+03 7.01987256e+03 6.85614795e+03 7.21990527e+03 7.60158203e+03 7.39428174e+03 7.06238184e+03 6.92462012e+03 7.43367236e+03 7.77375537e+03 7.60446045e+03 7.52410791e+03 7.37417090e+03 7.46020996e+03 7.75098486e+03 7.75953809e+03 8.00452686e+03 7.91738086e+03 7.79615869e+03 7.81510400e+03 7.66646240e+03 8.00203223e+03 8.30301562e+03 8.22589941e+03 8.26999805e+03 8.26119043e+03 8.06467725e+03 7.96694189e+03 8.36606055e+03 8.70346973e+03 8.53097168e+03 8.39569922e+03 8.22464160e+03 8.57773926e+03 8.75251855e+03 8.62043066e+03 8.86988672e+03 8.93747168e+03 8.70228516e+03 8.58408105e+03 8.90079590e+03 9.36526367e+03 9.21782031e+03 9.03948242e+03 8.90105859e+03 8.91214258e+03 9.10990625e+03 9.26154688e+03 9.58247461e+03 9.56506445e+03 9.36712012e+03 9.19903613e+03 9.01366016e+03 9.53203809e+03 1.00675645e+04 9.82700684e+03 9.41687305e+03 9.28044824e+03 9.75643457e+03 1.01640518e+04 9.96300586e+03 9.83839355e+03 9.89043164e+03 9.80316992e+03 9.66515625e+03 1.01310322e+04 1.05335557e+04 1.02766348e+04 1.01572920e+04 9.97658887e+03 1.00134619e+04 1.05876064e+04 1.05855146e+04 1.03622471e+04 1.04264072e+04 1.04691162e+04 1.02325977e+04 1.00877549e+04 1.05427451e+04 1.10178545e+04 1.10017910e+04 1.06416328e+04 1.03211211e+04 1.05508291e+04 1.08174189e+04 1.11083955e+04 1.11491641e+04 1.07860576e+04 1.08431162e+04 1.10148604e+04 1.10382412e+04 1.11182412e+04 1.12438076e+04 1.15595752e+04 1.13045107e+04 1.09716064e+04 1.11604189e+04 1.13766494e+04 1.16638779e+04 1.14880918e+04 1.13176982e+04 1.15114248e+04 1.12746357e+04 1.15890508e+04 1.19346660e+04 1.16308477e+04 1.18072090e+04 1.16640156e+04 1.12999092e+04 1.15330283e+04 1.21163906e+04 1.21402959e+04 1.16507705e+04 1.18793398e+04 1.21476846e+04 1.19961484e+04 1.20159141e+04 1.19166045e+04 1.23222441e+04 1.22494814e+04 1.17022666e+04 1.18862246e+04 1.21398984e+04 1.24986553e+04 1.26405254e+04 1.24044453e+04 1.22323057e+04 1.19905342e+04 1.21789707e+04 1.26884785e+04 1.29541602e+04 1.25815801e+04 1.20285703e+04 1.22820410e+04 1.25739863e+04 1.28827080e+04 1.29195723e+04 1.23425205e+04 1.26113135e+04 1.28627988e+04 1.27225127e+04 1.28724678e+04 1.25401338e+04 1.28120908e+04 1.31163916e+04 1.27093359e+04 1.27744697e+04 1.30117314e+04 1.29416738e+04 1.26964648e+04 1.31495146e+04 1.33663320e+04 1.27631328e+04 1.31136377e+04 1.33667607e+04 1.30641465e+04 1.30862783e+04 1.27728047e+04 1.28243809e+04 1.32000244e+04 1.32713379e+04 1.32617246e+04 1.32517861e+04 1.36056592e+04 1.35768086e+04 1.29868799e+04
    4.92555908e+03 5.12295264e+03 5.06701465e+03 5.19573926e+03 5.11859131e+03 5.04865576e+03 5.22629346e+03 5.29422314e+03 5.37530762e+03 5.40245361e+03 5.41766309e+03 5.41483691e+03 5.42134326e+03 5.62805273e+03 5.68614355e+03 5.68379736e+03 5.62063916e+03 5.62930469e+03 5.80824023e+03 5.84682910e+03 6.02302783e+03 6.05685938e+03 5.97859326e+03 5.92388184e+03 5.83602588e+03 6.14182422e+03 6.29835596e+03 6.25402393e+03 6.45002197e+03 6.33101074e+03 6.21467432e+03 6.43117383e+03 6.52289648e+03 6.62329053e+03 6.55749316e+03 6.53846094e+03 6.60270703e+03 6.70170361e+03 6.95037939e+03 6.95009180e+03 6.80189014e+03 6.73046729e+03 6.78651904e+03 6.93164844e+03 6.90449854e+03 7.18814893e+03 7.48752051e+03 7.32059961e+03 7.03420117e+03 6.96517822e+03 7.37310645e+03 7.67653076e+03 7.48256055e+03 7.46535742e+03 7.35227441e+03 7.46358496e+03 7.72933643e+03 7.72528467e+03 7.92621680e+03 7.85468701e+03 7.78810986e+03 7.79898730e+03 7.65956592e+03 7.99242627e+03 8.24845605e+03 8.11035254e+03 8.15275781e+03 8.20461523e+03 8.01996973e+03 7.91564307e+03 8.34176660e+03 8.57471191e+03 8.41061719e+03 8.29947754e+03 8.19079932e+03 8.57847363e+03 8.68389453e+03 8.53703418e+03 8.82003613e+03 8.84683301e+03 8.68128809e+03 8.51705762e+03 8.81447070e+03 9.23614453e+03 9.17259082e+03 8.98922852e+03 8.82795312e+03 8.80936328e+03 9.03681641e+03 9.19537598e+03 9.49532324e+03 9.53290527e+03 9.31019531e+03 9.11961328e+03 8.90659863e+03 9.45877051e+03 9.92914453e+03 9.76435352e+03 9.33122852e+03 9.18000684e+03 9.66705371e+03 1.01092979e+04 9.97554492e+03 9.73433887e+03 9.76062793e+03 9.73510938e+03 9.57788281e+03 1.00355322e+04 1.04108350e+04 1.01942031e+04 1.01489395e+04 9.89465039e+03 9.89033789e+03 1.04420811e+04 1.05207715e+04 1.03317031e+04 1.03628291e+04 1.04219756e+04 1.01731885e+04 1.00061631e+04 1.04806436e+04 1.09257412e+04 1.08282090e+04 1.04724648e+04 1.02093320e+04 1.04664648e+04 1.07193076e+04 1.10511348e+04 1.11448496e+04 1.07690527e+04 1.07437031e+04 1.09539082e+04 1.09880303e+04 1.10697881e+04 1.11562061e+04 1.14384590e+04 1.11715771e+04 1.08653477e+04 1.10668213e+04 1.12314795e+04 1.15624492e+04 1.14631816e+04 1.12821865e+04 1.13666602e+04 1.11482129e+04 1.15153730e+04 1.18376738e+04 1.15969971e+04 1.18130527e+04 1.15802900e+04 1.11479580e+04 1.14283867e+04 1.20153838e+04 1.20429492e+04 1.15646807e+04 1.18269863e+04 1.20974814e+04 1.18997568e+04 1.19333076e+04 1.18705381e+04 1.22029824e+04 1.20819434e+04 1.15765527e+04 1.17446299e+04 1.20549004e+04 1.24376387e+04 1.25508594e+04 1.22917568e+04 1.21675205e+04 1.19113623e+04 1.20739189e+04 1.25495947e+04 1.28458008e+04 1.25201738e+04 1.20308896e+04 1.21941406e+04 1.24298877e+04 1.27788076e+04 1.28274746e+04 1.23007256e+04 1.26397021e+04 1.28693555e+04 1.26071650e+04 1.27023164e+04 1.25119727e+04 1.28023066e+04 1.29832139e+04 1.25715586e+04 1.26493525e+04 1.28501846e+04 1.28569355e+04 1.26591924e+04 1.30475098e+04 1.32219258e+04 1.26373691e+04 1.29880215e+04 1.32734268e+04 1.30291221e+04 1.29952754e+04 1.26552705e+04 1.27811045e+04 1.31528896e+04 1.31736963e+04 1.31785234e+04 1.31565215e+04 1.34266230e+04 1.34250762e+04 1.29532139e+04
    4.88616309e+03 5.07718359e+03 5.05016553e+03 5.21344238e+03 5.11000391e+03 5.03778711e+03 5.20670947e+03 5.24559033e+03 5.38647949e+03 5.37022900e+03 5.38484229e+03 5.41506787e+03 5.41469238e+03 5.58667529e+03 5.63372998e+03 5.67515283e+03 5.62487842e+03 5.60828125e+03 5.76930371e+03 5.78143066e+03 6.00540381e+03 6.07986572e+03 5.96346924e+03 5.83656396e+03 5.79255469e+03 6.10215137e+03 6.31193555e+03 6.19594873e+03 6.38978711e+03 6.28721631e+03 6.20065576e+03 6.41885107e+03 6.47046484e+03 6.56388623e+03 6.54065527e+03 6.53435303e+03 6.58392773e+03 6.61939307e+03 6.91960889e+03 6.92622070e+03 6.81644043e+03 6.76888770e+03 6.77434668e+03 6.86831201e+03 6.83174756e+03 7.13979492e+03 7.46350146e+03 7.29409424e+03 7.03852002e+03 6.96121924e+03 7.36015332e+03 7.62731006e+03 7.43735986e+03 7.42300488e+03 7.32809814e+03 7.44522217e+03 7.63478418e+03 7.68637988e+03 7.84902441e+03 7.75797266e+03 7.74239355e+03 7.79084912e+03 7.66075732e+03 7.96597754e+03 8.13453955e+03 8.03353223e+03 8.05765088e+03 8.17112598e+03 8.00300684e+03 7.92424561e+03 8.28343262e+03 8.57279102e+03 8.41261719e+03 8.20850488e+03 8.14579297e+03 8.56388574e+03 8.72953418e+03 8.52211328e+03 8.74163965e+03 8.80605469e+03 8.63459277e+03 8.46562012e+03 8.73976074e+03 9.17110156e+03 9.10109961e+03 8.94474902e+03 8.80480664e+03 8.75686816e+03 9.04472656e+03 9.12622070e+03 9.38878906e+03 9.49310645e+03 9.28994141e+03 9.06341797e+03 8.88606152e+03 9.39349805e+03 9.90407812e+03 9.65993945e+03 9.32892578e+03 9175. 9.61981934e+03 1.00115244e+04 9.85444727e+03 9.69874805e+03 9.76735742e+03 9.67317285e+03 9.55852930e+03 9.95654297e+03 1.03276162e+04 1.01372246e+04 1.00477002e+04 9.85615918e+03 9.87319531e+03 1.03989229e+04 1.05452432e+04 1.03000283e+04 1.03239561e+04 1.03169824e+04 1.00763916e+04 9.90995898e+03 1.03839570e+04 1.08674600e+04 1.07728945e+04 1.04311270e+04 1.01531387e+04 1.04107295e+04 1.06947188e+04 1.09964072e+04 1.11515215e+04 1.06711377e+04 1.06526865e+04 1.08964893e+04 1.09628154e+04 1.10354111e+04 1.11335303e+04 1.13854717e+04 1.11225986e+04 1.08420693e+04 1.10606680e+04 1.11190273e+04 1.14538486e+04 1.14816768e+04 1.12389414e+04 1.12924277e+04 1.10466436e+04 1.14480420e+04 1.17878984e+04 1.15292715e+04 1.17644385e+04 1.15438311e+04 1.11005605e+04 1.13979668e+04 1.19339580e+04 1.19369746e+04 1.15091279e+04 1.17896611e+04 1.20349727e+04 1.18609209e+04 1.19072764e+04 1.18414795e+04 1.21054443e+04 1.20398203e+04 1.15360049e+04 1.16919922e+04 1.19766230e+04 1.23798604e+04 1.25238330e+04 1.22268027e+04 1.21243662e+04 1.19071934e+04 1.19673867e+04 1.24244941e+04 1.27229170e+04 1.24625332e+04 1.19404219e+04 1.20883535e+04 1.24030186e+04 1.26876475e+04 12780. 1.22731729e+04 1.26158369e+04 1.28440381e+04 1.25522852e+04 1.26654795e+04 1.24574443e+04 1.26954502e+04 1.28550635e+04 1.24802061e+04 1.25405820e+04 1.28220693e+04 1.28163838e+04 1.25973428e+04 1.30110684e+04 1.31719961e+04 1.25551582e+04 1.28942598e+04 1.31808447e+04 1.29653262e+04 1.29819385e+04 1.26598643e+04 1.27301064e+04 1.30732051e+04 1.30932148e+04 1.30861719e+04 1.30527363e+04 1.33019805e+04 1.33328018e+04 1.28772607e+04
    4.88241211e+03 5.11257520e+03 5.05308447e+03 5.18454688e+03 5.10735645e+03 5.00458594e+03 5.19922852e+03 5.24395264e+03 5.37277100e+03 5.36918408e+03 5.37510400e+03 5.37742090e+03 5.35722266e+03 5.56128760e+03 5.62560889e+03 5.65686475e+03 5.60211328e+03 5.57322656e+03 5.75416260e+03 5.76541162e+03 6.00791211e+03 6.09014062e+03 5.92019043e+03 5.81003418e+03 5.74318750e+03 6.10622998e+03 6.30089258e+03 6.18893408e+03 6.42641699e+03 6.33103320e+03 6.14939893e+03 6.35342090e+03 6.44810156e+03 6.60912500e+03 6.55386865e+03 6.51779346e+03 6.57441309e+03 6.58134033e+03 6.87793115e+03 6.90109766e+03 6.80566943e+03 6.74582715e+03 6.77332812e+03 6.85687451e+03 6.77968066e+03 7.08501660e+03 7.47924414e+03 7.29209424e+03 6.98627588e+03 6.87345361e+03 7.29527197e+03 7.64765381e+03 7.47393945e+03 7.42728711e+03 7.33075635e+03 7.40498633e+03 7.65176123e+03 7.67773047e+03 7.84737646e+03 7.75680469e+03 7.68872656e+03 7.71527588e+03 7.60577930e+03 7.93146631e+03 8.16366943e+03 8.05794629e+03 8.10613135e+03 8.10885107e+03 7.95494971e+03 7.83348291e+03 8.31142578e+03 8.61586719e+03 8.42712891e+03 8.20772852e+03 8.08136963e+03 8.50276367e+03 8.71561719e+03 8.55240039e+03 8.72981250e+03 8.79325586e+03 8.62783496e+03 8.44374609e+03 8.67554102e+03 9.13462012e+03 9.09432227e+03 8.92228320e+03 8.75668652e+03 8.72279492e+03 9.00746387e+03 9.03256934e+03 9.40073926e+03 9.56004395e+03 9.30208203e+03 9.01603809e+03 8.86900977e+03 9.37318359e+03 9.93460449e+03 9.68297363e+03 9.25457812e+03 9.08981055e+03 9.59940820e+03 1.00846240e+04 9.87556445e+03 9.67505762e+03 9.70095703e+03 9.59189648e+03 9.42426660e+03 9.93056836e+03 1.04161299e+04 1.01385322e+04 1.00203965e+04 9.81883984e+03 9.76132227e+03 1.04156455e+04 1.05641172e+04 1.02617744e+04 1.02741504e+04 1.03077363e+04 1.00662236e+04 9.84894922e+03 1.03315498e+04 1.08424277e+04 1.08366562e+04 1.04423750e+04 1.00849004e+04 1.03708623e+04 1.06917061e+04 1.10414395e+04 1.11657148e+04 1.05482656e+04 1.05392490e+04 1.08876943e+04 1.09103242e+04 1.09900713e+04 1.11870713e+04 1.14644287e+04 1.10798555e+04 1.06809980e+04 1.09920029e+04 1.11885381e+04 1.15649473e+04 1.14674971e+04 1.11368711e+04 1.12693457e+04 1.10306523e+04 1.13592480e+04 11780. 1.15419141e+04 1.17928779e+04 1.14828887e+04 1.09824346e+04 1.13409785e+04 1.19709863e+04 1.19700801e+04 1.13888916e+04 1.16836865e+04 1.20449375e+04 1.18667549e+04 1.18704229e+04 1.17315986e+04 1.21032139e+04 1.20121855e+04 1.14541162e+04 1.16877549e+04 1.20048359e+04 1.23576680e+04 1.25035586e+04 1.22071260e+04 1.20578906e+04 1.17904512e+04 1.18899697e+04 1.23409385e+04 1.27731689e+04 1.25333193e+04 1.18400361e+04 1.19837285e+04 1.23346953e+04 1.26662051e+04 1.27393428e+04 1.22092686e+04 1.26063975e+04 1.28423105e+04 1.24774600e+04 1.26390420e+04 1.24500381e+04 1.27030391e+04 1.28352461e+04 1.22956895e+04 1.23924121e+04 1.28760977e+04 1.29518896e+04 1.25939912e+04 1.29410137e+04 1.31294189e+04 1.24238438e+04 1.28022119e+04 1.32425195e+04 1.29468027e+04 1.29793701e+04 1.26295947e+04 1.26912021e+04 1.30394326e+04 1.30703838e+04 1.30815410e+04 1.30383281e+04 1.33650020e+04 1.33851367e+04 1.28105010e+04
    4.91014160e+03 5.16139697e+03 5.03911963e+03 5.18836035e+03 5.08759473e+03 4.99962109e+03 5.17388428e+03 5.21413037e+03 5.37550830e+03 5.37581836e+03 5.37548730e+03 5.38537207e+03 5.35009912e+03 5.59597998e+03 5.63362500e+03 5.61251123e+03 5.56302539e+03 5.57325000e+03 5.76585400e+03 5.79755469e+03 5.99740186e+03 6.08125830e+03 5.92364014e+03 5.82861475e+03 5.71837158e+03 6.09000146e+03 6.30654639e+03 6.18875195e+03 6.42360938e+03 6.32970605e+03 6.12012109e+03 6.35106006e+03 6.45011572e+03 6.61587744e+03 6.58709766e+03 6.53421777e+03 6.52823096e+03 6.56642578e+03 6.89012305e+03 6.92553857e+03 6.81612109e+03 6.77135840e+03 6.77948730e+03 6.83217627e+03 6.70718262e+03 7.07421387e+03 7.53920166e+03 7.31154199e+03 6.96829053e+03 6.83595215e+03 7.26212451e+03 7.61499951e+03 7.49426123e+03 7.47816943e+03 7.31581396e+03 7.37208350e+03 7.61605127e+03 7.67691162e+03 7.84496875e+03 7.78317822e+03 7.69350391e+03 7.69442285e+03 7.58315820e+03 7.94612061e+03 8.19480469e+03 8.10029150e+03 8.13425439e+03 8.11123926e+03 7.87830371e+03 7.72025146e+03 8.29561914e+03 8.65695508e+03 8.46706543e+03 8.17460303e+03 8.06075293e+03 8.45713477e+03 8.74764648e+03 8.59928906e+03 8.81999414e+03 8.86865723e+03 8.57922461e+03 8.34749609e+03 8.68930957e+03 9.24372852e+03 9.13481055e+03 8.95675488e+03 8.67907227e+03 8.63926953e+03 9.00421973e+03 9.06129004e+03 9.44331738e+03 9.61515137e+03 9.27113477e+03 8.97728809e+03 8.76677832e+03 9.44514648e+03 1.00598076e+04 9.74983984e+03 9.17298047e+03 8.88185547e+03 9.57314062e+03 1.02415205e+04 9.94428906e+03 9.65830273e+03 9.71740723e+03 9.58771777e+03 9.30195020e+03 9.89611230e+03 1.05967002e+04 1.02854219e+04 1.00301074e+04 9.77168359e+03 9.71598145e+03 1.04529648e+04 1.06109961e+04 1.02385371e+04 1.02577080e+04 1.03104727e+04 9.97996484e+03 9.73279883e+03 1.02869092e+04 1.09008965e+04 1.09388535e+04 1.05247803e+04 1.00665293e+04 1.02904580e+04 1.06779395e+04 1.10656465e+04 1.11532803e+04 1.04639375e+04 1.04390645e+04 1.08381113e+04 1.09012549e+04 1.09979336e+04 1.12161494e+04 1.15793506e+04 1.11191436e+04 1.06464082e+04 1.09925898e+04 1.12310596e+04 1.16323867e+04 1.14244648e+04 1.10852637e+04 1.12415859e+04 1.09436709e+04 1.13992969e+04 1.18799307e+04 1.15960127e+04 1.18175928e+04 1.14360859e+04 1.09254863e+04 1.13142295e+04 1.20199688e+04 1.19886885e+04 1.13461924e+04 1.16763877e+04 1.20322949e+04 1.18393965e+04 1.18566680e+04 1.16428936e+04 1.21373105e+04 1.20765244e+04 1.13664473e+04 1.16997373e+04 1.20610518e+04 1.24235479e+04 1.25138691e+04 1.21873408e+04 1.21118154e+04 1.17659775e+04 1.17870889e+04 1.22899375e+04 1.28659092e+04 1.25881875e+04 1.17391387e+04 1.18597520e+04 1.23305137e+04 1.27363486e+04 1.27924141e+04 1.21864043e+04 1.25491777e+04 1.28377959e+04 1.24860020e+04 1.26559502e+04 1.24057139e+04 1.26757412e+04 1.28087832e+04 1.21624707e+04 1.23359141e+04 1.29587676e+04 1.30570352e+04 1.26113008e+04 1.28697061e+04 1.30823027e+04 1.24295215e+04 1.28337148e+04 1.32269854e+04 1.29331357e+04 1.30045430e+04 1.26686914e+04 1.26088223e+04 1.29238340e+04 1.30090439e+04 1.31463564e+04 1.31321074e+04 1.33603818e+04 1.34305752e+04 1.28436270e+04
    4.95039844e+03 5.17732568e+03 5.02527197e+03 5.17596631e+03 5.11385742e+03 5.01013184e+03 5.19369922e+03 5.24270850e+03 5.38885010e+03 5.36940625e+03 5.44445020e+03 5.41573535e+03 5.34432910e+03 5.60608545e+03 5.67731934e+03 5.66027490e+03 5.59226758e+03 5.58013477e+03 5.79872803e+03 5.82937109e+03 6.07647607e+03 6.09312158e+03 5.93519238e+03 5.83231836e+03 5.68721094e+03 6.05491797e+03 6.28507031e+03 6.23960107e+03 6.50469678e+03 6.28474902e+03 6.10917480e+03 6.37732861e+03 6.54997363e+03 6.64994727e+03 6.63274902e+03 6.56147119e+03 6.55958105e+03 6.58057324e+03 6.91118750e+03 6.91576807e+03 6.85135352e+03 6.79685791e+03 6.82141992e+03 6.83774512e+03 6.69539990e+03 7.07399072e+03 7.55265674e+03 7.34142920e+03 6.94037842e+03 6.82922461e+03 7.32485254e+03 7.70231348e+03 7.51231885e+03 7.50691943e+03 7.29717676e+03 7.37405371e+03 7.64546484e+03 7.64730029e+03 7.90009131e+03 7.82923096e+03 7.68662012e+03 7.69741113e+03 7.57408398e+03 7.94713623e+03 8.24546973e+03 8.18148730e+03 8.20844629e+03 8.21846484e+03 7.91283398e+03 7.74459521e+03 8.22482715e+03 8.71270801e+03 8.50115234e+03 8.21540430e+03 8.05573682e+03 8.43559863e+03 8.73802148e+03 8.66959473e+03 8.86939258e+03 8.85590625e+03 8.55640723e+03 8.34331250e+03 8.75699609e+03 9.29879004e+03 9.15215723e+03 8.95075488e+03 8.65989355e+03 8.67109473e+03 9.02207227e+03 9.13055664e+03 9.48979883e+03 9.62863281e+03 9.27414453e+03 8.95954785e+03 8.75850000e+03 9.45817383e+03 1.01155508e+04 9.76381250e+03 9.18202051e+03 8.91007910e+03 9.60384375e+03 1.03233867e+04 9.94353027e+03 9.66733887e+03 9.73910645e+03 9.57752930e+03 9.30097754e+03 9.94098730e+03 1.06213096e+04 1.02456670e+04 1.00697139e+04 9.80288867e+03 9.75704883e+03 1.05242373e+04 1.06303682e+04 1.02278340e+04 1.03064756e+04 1.03770264e+04 1.00140527e+04 9.74117090e+03 1.02928643e+04 1.09009873e+04 1.09830674e+04 1.05697549e+04 1.00958975e+04 1.03266162e+04 1.06886328e+04 1.11006680e+04 1.12213643e+04 1.04957451e+04 1.04621289e+04 1.08733135e+04 1.09413555e+04 1.09892666e+04 1.12007920e+04 1.16810498e+04 1.12075400e+04 1.06542559e+04 1.09636592e+04 1.12716758e+04 1.16935215e+04 1.14869004e+04 1.11077393e+04 1.12638623e+04 1.10175527e+04 1.14676650e+04 1.18894395e+04 1.16124316e+04 1.18300283e+04 1.13826152e+04 1.09006670e+04 1.13428750e+04 1.20867842e+04 1.21013145e+04 1.13874561e+04 1.16963691e+04 1.20813789e+04 1.18181328e+04 1.18584102e+04 1.16384268e+04 1.21865586e+04 1.21170068e+04 1.13433838e+04 1.17518604e+04 1.21390742e+04 1.24428740e+04 1.25501143e+04 1.22828574e+04 1.21374512e+04 1.17185791e+04 1.17832061e+04 1.24303574e+04 1.29467061e+04 1.26130801e+04 1.17769619e+04 1.18945459e+04 1.23143203e+04 1.28178994e+04 1.28549014e+04 1.21293770e+04 1.25634473e+04 1.28742588e+04 1.25555469e+04 1.26990391e+04 1.24405332e+04 1.27888809e+04 1.28253701e+04 1.21296055e+04 1.23775166e+04 1.30192627e+04 1.31100283e+04 1.25884326e+04 1.28716494e+04 1.31265381e+04 1.24078066e+04 1.29321475e+04 1.34096602e+04 1.29959902e+04 1.30323701e+04 1.26167764e+04 1.26224570e+04 1.29926211e+04 1.29947705e+04 1.31875459e+04 1.32432471e+04 1.34845459e+04 1.35372041e+04 1.28439473e+04
    4.97209961e+03 5.16234131e+03 5.05955127e+03 5.20427295e+03 5.12515723e+03 5.07667676e+03 5.22713037e+03 5.28116846e+03 5.39486035e+03 5.38455518e+03 5.45644971e+03 5.47366797e+03 5.39586230e+03 5.62764014e+03 5.69217725e+03 5.70012793e+03 5.61557471e+03 5.60221973e+03 5.81805664e+03 5.86405615e+03 6.09274902e+03 6.12408008e+03 5.97684521e+03 5.85640967e+03 5.72904541e+03 6.07767627e+03 6.34585889e+03 6.22746289e+03 6.44811963e+03 6.30804980e+03 6.13597021e+03 6.47234180e+03 6.57905029e+03 6.67992871e+03 6.58662402e+03 6.58775830e+03 6.54417090e+03 6.56265381e+03 6.95462061e+03 7.01273730e+03 6.85805420e+03 6.79915576e+03 6.88394189e+03 6.91518555e+03 6.73046582e+03 7.11467969e+03 7.60132178e+03 7.37233887e+03 7.03393408e+03 6.89836475e+03 7.32580225e+03 7.62788037e+03 7.56896387e+03 7.53733398e+03 7.30350146e+03 7.37344385e+03 7.63180908e+03 7.72183301e+03 7.89313428e+03 7.85849170e+03 7.74094238e+03 7.79497656e+03 7.65777930e+03 7.99805713e+03 8.23592188e+03 8.15620850e+03 8.22529004e+03 8.21538379e+03 7.96319629e+03 7.84939355e+03 8.29619922e+03 8.70682715e+03 8.51761230e+03 8.29056152e+03 8.09184570e+03 8.46484766e+03 8.76967773e+03 8.69897559e+03 8.94934863e+03 8.91343457e+03 8.59550977e+03 8.44237891e+03 8.82650195e+03 9.41727344e+03 9.16972559e+03 8.92402441e+03 8.76098438e+03 8.72060840e+03 9.03572363e+03 9.16521484e+03 9.48193164e+03 9.60072852e+03 9.34301270e+03 9.01819629e+03 8.90983789e+03 9.49292188e+03 1.00282471e+04 9.79040527e+03 9.31437305e+03 9.07091602e+03 9.68652246e+03 1.02582393e+04 9.95807031e+03 9.70479004e+03 9.74879102e+03 9.68853320e+03 9.39335840e+03 1.00182275e+04 1.06164922e+04 1.02648584e+04 1.01356260e+04 9.88324609e+03 9.87503516e+03 1.05039697e+04 1.05917002e+04 1.02727061e+04 1.03791016e+04 1.04346719e+04 1.00773467e+04 9.77829395e+03 1.03373984e+04 1.09730332e+04 1.10163701e+04 1.05837842e+04 1.02259775e+04 1.04301865e+04 1.07462559e+04 1.10936104e+04 1.11492305e+04 1.05757910e+04 1.06015547e+04 1.09500332e+04 1.10082363e+04 1.10123965e+04 1.11920889e+04 1.16618447e+04 1.12827500e+04 1.08243037e+04 1.10360645e+04 1.12609697e+04 1.16905000e+04 1.14685859e+04 1.11798770e+04 1.13537285e+04 1.10355352e+04 1.15210645e+04 1.19331523e+04 1.16047793e+04 1.17904795e+04 1.14720527e+04 1.10924629e+04 1.14707051e+04 1.20737158e+04 1.20416338e+04 1.15126357e+04 1.18457588e+04 1.20810400e+04 1.18487832e+04 1.18652480e+04 1.17467920e+04 1.22593799e+04 1.21672471e+04 1.14895850e+04 1.18295938e+04 1.21471328e+04 1.24723262e+04 1.25804453e+04 1.23480234e+04 1.22032480e+04 1.18056426e+04 1.18973281e+04 1.24666631e+04 1.29102334e+04 1.25575625e+04 1.18866260e+04 1.20412266e+04 1.24371523e+04 1.29476094e+04 1.28973818e+04 1.22219863e+04 1.26086631e+04 1.28700957e+04 1.26172197e+04 1.27566758e+04 1.24991758e+04 1.28037705e+04 1.28090537e+04 1.23503926e+04 1.25850449e+04 1.30046230e+04 1.30501270e+04 1.26607656e+04 1.29556592e+04 1.32019756e+04 1.25708350e+04 1.30400918e+04 1.34036592e+04 1.30790752e+04 1.30922637e+04 1.26466846e+04 1.27155283e+04 1.30664404e+04 1.29901113e+04 1.31804912e+04 1.32996211e+04 1.35157529e+04 1.35305889e+04 1.28992207e+04
    5.01200537e+03 5.17799902e+03 5.09261035e+03 5.20544873e+03 5.18036816e+03 5.09726709e+03 5.24455664e+03 5.34253809e+03 5.44521387e+03 5.42545410e+03 5.46965967e+03 5.46876221e+03 5.45031250e+03 5.65500439e+03 5.74820068e+03 5.74841895e+03 5.63761523e+03 5.65819873e+03 5.86025439e+03 5.94608496e+03 6.14200732e+03 6.14128174e+03 6.00319287e+03 5.89901270e+03 5.79843848e+03 6.13727490e+03 6.35729932e+03 6.28647803e+03 6.49754883e+03 6.34429004e+03 6.21189795e+03 6.50542334e+03 6.59976611e+03 6.69065918e+03 6.66510986e+03 6.62342041e+03 6.59579395e+03 6.61112012e+03 6.95702734e+03 7.03834082e+03 6.95549023e+03 6.89142383e+03 6.91215234e+03 6.94166748e+03 6.80222363e+03 7.19295703e+03 7.59321143e+03 7.40679834e+03 7.09103125e+03 6.94220410e+03 7.39174902e+03 7.78570361e+03 7.61496191e+03 7.53426660e+03 7.34595557e+03 7.45226855e+03 7.67549707e+03 7.74966797e+03 8.01053662e+03 7.92443164e+03 7.78857764e+03 7.82377881e+03 7.70525781e+03 8.04293555e+03 8.27715723e+03 8.23070801e+03 8.33626562e+03 8.27931836e+03 8.06293213e+03 7.94106738e+03 8.37869727e+03 8.72098145e+03 8.60658203e+03 8.37582520e+03 8.16653369e+03 8.54420508e+03 8.83855664e+03 8.70616309e+03 8.97247363e+03 8.93115234e+03 8.68176953e+03 8.52045410e+03 8.85202344e+03 9.40627734e+03 9.27621582e+03 9.04912500e+03 8.88539160e+03 8.84523340e+03 9.09515820e+03 9.20099316e+03 9.53982520e+03 9.63999805e+03 9.39981641e+03 9.09157031e+03 8.96239258e+03 9.56052539e+03 1.00256162e+04 9.80070410e+03 9.44383496e+03 9.25903906e+03 9.73179980e+03 1.02133525e+04 9.97668164e+03 9.77327832e+03 9.87817285e+03 9.83965527e+03 9.66715820e+03 1.00759316e+04 1.05553359e+04 1.03020693e+04 1.01845547e+04 9.99705176e+03 1.00016143e+04 1.05522471e+04 1.06224355e+04 1.03626123e+04 1.03971006e+04 1.04752051e+04 1.01845400e+04 9.99034766e+03 1.04600947e+04 1.10087617e+04 1.10156758e+04 1.06805908e+04 1.03835215e+04 1.05307139e+04 1.07794248e+04 1.11104209e+04 1.12065361e+04 1.06986641e+04 1.07533740e+04 1.10963008e+04 1.10901670e+04 1.10952119e+04 1.12207920e+04 1.16103525e+04 1.13296562e+04 1.09393203e+04 1.11330859e+04 1.13196406e+04 1.16829629e+04 1.15414521e+04 1.12883613e+04 1.14729697e+04 1.12323252e+04 1.15351680e+04 1.19063438e+04 1.16993379e+04 1.18776660e+04 1.15482520e+04 1.12518594e+04 1.16053945e+04 1.21330283e+04 1.21342891e+04 1.16475508e+04 1.19052832e+04 1.21097900e+04 1.19704570e+04 1.19645518e+04 1.18986855e+04 1.23261182e+04 1.22286729e+04 1.16848242e+04 1.19217188e+04 1.21520508e+04 1.25194883e+04 1.26677158e+04 1.24224033e+04 1.22750713e+04 1.19536475e+04 1.20073086e+04 1.25650420e+04 1.29311123e+04 1.26341660e+04 1.21069004e+04 1.22187422e+04 1.25246064e+04 1.29747061e+04 1.29442871e+04 1.23185518e+04 1.26996768e+04 1.29432881e+04 1.26952529e+04 1.28371582e+04 1.25769395e+04 1.28858662e+04 1.29573926e+04 1.25391064e+04 1.27217549e+04 1.30100225e+04 1.30385752e+04 1.27173340e+04 1.31157812e+04 1.33272832e+04 1.26643135e+04 1.31461006e+04 1.34525674e+04 1.31449639e+04 1.31698760e+04 1.27073252e+04 1.28393936e+04 1.32427070e+04 1.31282881e+04 1.31451045e+04 1.33335303e+04 1.36961729e+04 1.35853955e+04 1.29452461e+04
    5.05306494e+03 5.26397705e+03 5.15845459e+03 5.26599756e+03 5.18788428e+03 5.14284326e+03 5.33235986e+03 5.36890479e+03 5.50903516e+03 5.49329688e+03 5.51773340e+03 5.54024609e+03 5.54114697e+03 5.72355664e+03 5.77076514e+03 5.77878027e+03 5.72478271e+03 5.70401221e+03 5.91234473e+03 5.97197900e+03 6.15965967e+03 6.19645898e+03 6.09028027e+03 5.94826025e+03 5.90157471e+03 6.24564941e+03 6.44203857e+03 6.32395508e+03 6.53255322e+03 6.44417773e+03 6.29816357e+03 6.55727979e+03 6.65209668e+03 6.71394482e+03 6.67320605e+03 6.66769092e+03 6.69063867e+03 6.73545312e+03 7.06300293e+03 7.10374512e+03 6.96213379e+03 6.88734033e+03 6.94380957e+03 7.04393652e+03 6.94567871e+03 7.26010107e+03 7.66842920e+03 7.47686768e+03 7.16291309e+03 7.02547412e+03 7.49607764e+03 7.81169580e+03 7.67786475e+03 7.59531348e+03 7.45548730e+03 7.58474609e+03 7.79444531e+03 7.85102637e+03 8.06688525e+03 7.97842188e+03 7.91949902e+03 7.84635986e+03 7.73688770e+03 8.12898877e+03 8.44284570e+03 8.30917383e+03 8.34602734e+03 8.33649414e+03 8.12803027e+03 7.98315967e+03 8.43709082e+03 8.81893359e+03 8.63310156e+03 8.43923828e+03 8.26003516e+03 8.67854297e+03 8.89813574e+03 8.75544336e+03 8.96056445e+03 9.09499707e+03 8.79252246e+03 8.58580078e+03 8.91353027e+03 9.53910742e+03 9.34436719e+03 9.09137793e+03 8.96024902e+03 8.98006641e+03 9.22146484e+03 9.29791113e+03 9.57967676e+03 9.70971875e+03 9.49551855e+03 9.18793457e+03 9.07571875e+03 9.66753418e+03 1.01483350e+04 9.93901465e+03 9.50794141e+03 9.36792773e+03 9.83818359e+03 1.03920244e+04 1.00988125e+04 9.81880273e+03 9.90783887e+03 9.92582520e+03 9.74920703e+03 1.02157402e+04 1.06545859e+04 1.04196641e+04 1.02496318e+04 1.01028428e+04 1.01126318e+04 1.06409482e+04 1.07463838e+04 1.04768652e+04 1.04841494e+04 10592. 1.03469736e+04 1.00914609e+04 1.05946904e+04 1.11865342e+04 1.10565557e+04 1.07254512e+04 1.04632207e+04 1.06188809e+04 1.08548535e+04 1.12384746e+04 1.13043447e+04 1.08410215e+04 1.08910801e+04 1.11883477e+04 1.11957676e+04 1.12058135e+04 1.13619346e+04 1.17371934e+04 1.14139961e+04 1.10153076e+04 1.12086377e+04 1.14700684e+04 1.18558428e+04 1.16644121e+04 1.14455479e+04 1.15737051e+04 1.12747490e+04 1.16574355e+04 1.21026475e+04 1.18217119e+04 1.19878594e+04 1.17192910e+04 1.13492344e+04 1.17195645e+04 1.22292188e+04 1.22112471e+04 1.17086396e+04 1.20452949e+04 1.22945732e+04 1.21118984e+04 1.21225537e+04 1.20726797e+04 1.24708604e+04 1.23087256e+04 1.17609102e+04 1.19943916e+04 1.22665342e+04 1.26315244e+04 1.27802090e+04 1.25122129e+04 1.23916699e+04 1.21317637e+04 1.22282676e+04 1.27014912e+04 1.30778174e+04 1.27319033e+04 1.21990332e+04 1.23766943e+04 1.26792852e+04 1.30851211e+04 1.30679307e+04 1.24816260e+04 1.28011436e+04 1.30465869e+04 1.28638574e+04 1.29422373e+04 1.26428574e+04 1.30384268e+04 1.31986006e+04 1.26992803e+04 1.28648652e+04 1.30747412e+04 1.30924209e+04 1.29006660e+04 1.32726250e+04 1.34607324e+04 1.27974844e+04 1.32454766e+04 1.35645283e+04 1.32043262e+04 1.32504189e+04 1.29087432e+04 1.30084531e+04 1.33350889e+04 1.32580889e+04 1.32753154e+04 1.34259072e+04 1.38800195e+04 1.37495967e+04 1.30196865e+04
    5.06269971e+03 5.32814404e+03 5.25894727e+03 5.37994092e+03 5.27448926e+03 5.17732520e+03 5.36550488e+03 5.40548145e+03 5.55463379e+03 5.58252979e+03 5.58378174e+03 5.61340430e+03 5.60958398e+03 5.85259375e+03 5.83455029e+03 5.81417676e+03 5.77639990e+03 5.80058350e+03 5.99741846e+03 6.01502344e+03 6.24680811e+03 6.26897705e+03 6.15612451e+03 6.05295850e+03 5.96468945e+03 6.30582129e+03 6.55294678e+03 6.45390723e+03 6.60783740e+03 6.48428271e+03 6.38694531e+03 6.64430322e+03 6.69938477e+03 6.78588330e+03 6.77619971e+03 6.75201074e+03 6.84463281e+03 6.86077148e+03 7.13753613e+03 7.13935352e+03 7.03157812e+03 6.94976367e+03 7.00097754e+03 7.10636230e+03 7.01859473e+03 7.38802979e+03 7.75442627e+03 7.57181641e+03 7.22490430e+03 7.17634131e+03 7.59410205e+03 7.87106982e+03 7.73389795e+03 7.69308838e+03 7.58706055e+03 7.73568457e+03 7.88403662e+03 7.90670996e+03 8.15241943e+03 8.08002881e+03 8.03461279e+03 7.96412451e+03 7.87927588e+03 8.23936426e+03 8.49119531e+03 8.38220508e+03 8.44179590e+03 8.44448438e+03 8.20251074e+03 8.06372510e+03 8.53145996e+03 8.95230371e+03 8.77327344e+03 8.47208691e+03 8.35297070e+03 8.80224414e+03 9.04700488e+03 8.85136914e+03 9.08937305e+03 9.18912109e+03 8.98427539e+03 8.70168945e+03 8.96881738e+03 9.55671875e+03 9.45157129e+03 9.29008203e+03 9.06016895e+03 9.07055469e+03 9.35779883e+03 9.39990039e+03 9.72730078e+03 9.90830078e+03 9.70095215e+03 9.35511914e+03 9.15075391e+03 9.75689062e+03 1.03842158e+04 1.01203496e+04 9.64091016e+03 9.34839551e+03 9.94200391e+03 1.04748037e+04 1.02255430e+04 9.95201465e+03 1.00182090e+04 1.00234531e+04 9.89708008e+03 1.03504912e+04 1.07941006e+04 1.04979297e+04 1.03801445e+04 1.01925361e+04 1.02201973e+04 1.07586924e+04 1.08740547e+04 1.05859326e+04 1.06508770e+04 1.07287080e+04 1.04711143e+04 1.02032900e+04 1.07400518e+04 1.12512012e+04 1.11989668e+04 1.08090898e+04 1.05392051e+04 1.08141797e+04 1.10763594e+04 1.14089277e+04 1.15441816e+04 1.10190527e+04 1.09588975e+04 1.12867666e+04 1.13326582e+04 1.13953506e+04 1.15433916e+04 1.18907930e+04 1.14875234e+04 1.10906846e+04 1.13441562e+04 1.16049307e+04 1.19756572e+04 1.18588389e+04 1.16581074e+04 1.16908105e+04 1.13613408e+04 1.18329512e+04 1.22695947e+04 1.19591328e+04 1.21956387e+04 1.18986338e+04 1.14255195e+04 1.17759141e+04 1.23644238e+04 1.24153818e+04 1.18624863e+04 1.21851611e+04 1.25123027e+04 1.22825088e+04 1.23221680e+04 1.22721396e+04 1.26224629e+04 1.24386680e+04 1.18552734e+04 1.20653613e+04 1.24069385e+04 1.28437939e+04 1.29788506e+04 1.26652227e+04 1.25428379e+04 1.22774248e+04 1.23389717e+04 1.28325635e+04 1.32680352e+04 1.29701719e+04 1.23925049e+04 1.24503682e+04 1.27457129e+04 1.32105889e+04 1.32263682e+04 1.26787861e+04 1.30320068e+04 1.32728096e+04 1.30808418e+04 1.31792852e+04 1.27760645e+04 1.31770693e+04 1.33938867e+04 1.28539248e+04 1.30003457e+04 1.31926211e+04 1.32007803e+04 1.30288301e+04 1.34542969e+04 1.36501982e+04 1.29330908e+04 1.34015537e+04 1.37967061e+04 1.33791768e+04 1.33959609e+04 1.31489014e+04 1.32031074e+04 1.34692422e+04 1.34590391e+04 1.34538828e+04 1.35089443e+04 1.39262471e+04 1.38556670e+04 1.32302510e+04
    5.16921045e+03 5.39569873e+03 5.32850732e+03 5.50222803e+03 5.32284229e+03 5.22901025e+03 5.47661670e+03 5.49192578e+03 5.64571338e+03 5.67122314e+03 5.67028564e+03 5.66666797e+03 5.68933691e+03 5.95139893e+03 5.93587158e+03 5.89115381e+03 5.86348535e+03 5.85909326e+03 6.08402002e+03 6.10264746e+03 6.35861084e+03 6.38850830e+03 6.26335059e+03 6.14583740e+03 6.01877930e+03 6.39796387e+03 6.67770947e+03 6.53363672e+03 6.72362842e+03 6.60016895e+03 6.49253369e+03 6.72296191e+03 6.79061328e+03 6.92563867e+03 6.87456689e+03 6.85106348e+03 6.89434082e+03 6.98851904e+03 7.23761084e+03 7.31323584e+03 7.09207373e+03 7.04234912e+03 7.15117773e+03 7.25246387e+03 7.13920361e+03 7.50512793e+03 7.89469922e+03 7.68200342e+03 7.36170898e+03 7.32018799e+03 7.68236377e+03 7.94880322e+03 7.84172363e+03 7.79844971e+03 7.71506445e+03 7.77494092e+03 8.00168945e+03 8.03509863e+03 8.28170020e+03 8.18886084e+03 8.07866211e+03 8.12312109e+03 8.07317334e+03 8.38558398e+03 8.57414062e+03 8.46800586e+03 8.53180371e+03 8.56480176e+03 8.33713770e+03 8.22148633e+03 8.71513867e+03 9.06184668e+03 8.90764844e+03 8.61162598e+03 8.49991699e+03 8.90819336e+03 9.11634180e+03 9.04688281e+03 9.22681934e+03 9.29741699e+03 9.07988867e+03 8.81708887e+03 9.11302441e+03 9.71310156e+03 9.55688086e+03 9.38737402e+03 9.28263965e+03 9.25095801e+03 9.47382324e+03 9.54400879e+03 9.88484766e+03 1.00201006e+04 9.78655566e+03 9.51218457e+03 9.27805762e+03 9.83131738e+03 1.04637588e+04 1.03006523e+04 9.79135059e+03 9.50453223e+03 1.00691475e+04 1.06307119e+04 1.03997305e+04 1.01120576e+04 1.01817510e+04 1.01487910e+04 1.00212139e+04 1.05613848e+04 1.09710020e+04 1.06654756e+04 1.05236709e+04 1.03709336e+04 1.03671475e+04 1.09518105e+04 1.10444346e+04 1.07808662e+04 1.08517383e+04 1.08777549e+04 1.06502812e+04 1.03559697e+04 1.08559678e+04 1.14175518e+04 1.13270654e+04 1.09564951e+04 1.07063301e+04 1.10138096e+04 1.12948926e+04 1.15253096e+04 1.16322812e+04 1.12142031e+04 1.11754385e+04 1.14506133e+04 1.15043057e+04 1.15712500e+04 1.17170635e+04 1.20172451e+04 1.16874854e+04 1.12502656e+04 1.15329014e+04 1.17812314e+04 1.21328486e+04 1.20323125e+04 1.18665410e+04 1.18879756e+04 1.14794414e+04 1.20085049e+04 1.24843252e+04 1.21216768e+04 1.23432217e+04 1.20774561e+04 1.16353369e+04 1.19978281e+04 1.25409854e+04 1.25011123e+04 1.19970391e+04 1.23791201e+04 1.27457598e+04 1.24465430e+04 1.25115195e+04 1.24509717e+04 1.27801504e+04 1.26091787e+04 1.20083721e+04 1.22949756e+04 1.26623838e+04 1.30416309e+04 1.31167090e+04 1.28319277e+04 1.27390371e+04 1.24598438e+04 1.25608984e+04 1.30847256e+04 1.34878486e+04 1.30848447e+04 1.24912119e+04 1.26364033e+04 1.29383486e+04 1.34113398e+04 1.34219346e+04 1.28531836e+04 1.32608271e+04 1.35353564e+04 1.32563809e+04 1.33525654e+04 1.29793975e+04 1.33356270e+04 1.35378916e+04 1.30401133e+04 1.31592461e+04 1.34312656e+04 1.34536318e+04 1.32437461e+04 1.36358223e+04 1.38300039e+04 1.31667432e+04 1.35412129e+04 1.39749600e+04 1.36303906e+04 1.35874062e+04 1.33463857e+04 1.34121846e+04 1.36514131e+04 1.37083379e+04 1.36973506e+04 1.36840186e+04 1.40756816e+04 1.40607363e+04 1.34351191e+04
    5.18629932e+03 5.43344922e+03 5.37402100e+03 5.57338574e+03 5.37540186e+03 5.27041309e+03 5.53268164e+03 5.55019336e+03 5.64763037e+03 5.67297705e+03 5.73919922e+03 5.73654102e+03 5.74958984e+03 5.97830078e+03 5.97042773e+03 5.91268408e+03 5.87583350e+03 5.90217285e+03 6.09027783e+03 6.13541309e+03 6.38249805e+03 6.41956250e+03 6.32610156e+03 6.18529883e+03 6.01728662e+03 6.44440430e+03 6.75864746e+03 6.59209375e+03 6.70918457e+03 6.62792188e+03 6.53617822e+03 6.76384863e+03 6.82400342e+03 6.94592773e+03 6.91743652e+03 6.86023828e+03 6.91337842e+03 7.01024805e+03 7.34091895e+03 7.30733203e+03 7.13309473e+03 7.14879395e+03 7.19929492e+03 7.25063184e+03 7.14527344e+03 7.53099365e+03 7.96933301e+03 7.74522754e+03 7.36470801e+03 7.30509424e+03 7.76678125e+03 8.00669971e+03 7.86744482e+03 7.88903564e+03 7.77904248e+03 7.80767969e+03 8.03251709e+03 8.11807080e+03 8.30513867e+03 8.26000488e+03 8.12925488e+03 8.25200488e+03 8.17840723e+03 8.39940625e+03 8.58419727e+03 8.52324219e+03 8.60244141e+03 8.54955273e+03 8.40223438e+03 8.32483203e+03 8.74770312e+03 9.11896289e+03 8.96276660e+03 8.66439941e+03 8.56616699e+03 8.93763086e+03 9.18469336e+03 9.12466504e+03 9.31076367e+03 9.26368457e+03 9.10145410e+03 8.92451562e+03 9.17189844e+03 9.69713867e+03 9.62498438e+03 9.48348242e+03 9.32215430e+03 9.28710938e+03 9.53962891e+03 9.59967773e+03 9.90474121e+03 9.99652344e+03 9.79670801e+03 9.59811426e+03 9.35144434e+03 9.88990820e+03 1.05228252e+04 1.03836152e+04 9.90856445e+03 9.58242285e+03 1.00716016e+04 1.06032715e+04 1.04282832e+04 1.01895889e+04 1.02588252e+04 1.02192217e+04 1.00898301e+04 1.05718223e+04 1.10256641e+04 1.07100635e+04 1.06013271e+04 1.04098828e+04 1.03916895e+04 1.10174785e+04 1.10512266e+04 1.08372734e+04 1.09121826e+04 1.08914141e+04 1.07012441e+04 1.04729766e+04 1.09283984e+04 1.14050059e+04 1.13804629e+04 1.10315117e+04 1.07366523e+04 1.11560039e+04 1.14366963e+04 1.15445039e+04 1.16709893e+04 1.13069746e+04 1.12383711e+04 1.14207939e+04 1.15456289e+04 1.16381289e+04 1.17701367e+04 1.20410938e+04 1.17175576e+04 1.13618496e+04 1.16392959e+04 1.18310029e+04 1.21188516e+04 1.21136963e+04 1.19315889e+04 1.19119912e+04 1.15561826e+04 1.20755459e+04 1.26041904e+04 1.22281748e+04 1.24031211e+04 1.21828691e+04 1.16974082e+04 1.20620811e+04 1.25456260e+04 1.25524785e+04 1.21170342e+04 1.24786348e+04 1.27638057e+04 1.25171895e+04 1.25749609e+04 1.24880244e+04 1.27654404e+04 1.26800068e+04 1.21412578e+04 1.23571035e+04 1.27140967e+04 1.31267705e+04 1.31577920e+04 1.29001338e+04 1.28470332e+04 1.25223350e+04 1.25601846e+04 1.30488242e+04 1.34653438e+04 1.32464990e+04 1.26856641e+04 1.26741992e+04 1.29457861e+04 1.34243721e+04 1.34699434e+04 1.29726943e+04 1.34094131e+04 1.35957314e+04 1.33190430e+04 1.34555947e+04 1.30672891e+04 1.33250508e+04 1.35399639e+04 1.31577686e+04 1.32622402e+04 1.34861660e+04 1.35280605e+04 1.33221836e+04 1.36862891e+04 1.38997764e+04 1.32400664e+04 1.36205312e+04 1.40499473e+04 1.37928301e+04 1.37169590e+04 1.34517471e+04 1.34879404e+04 1.37301709e+04 1.38022939e+04 1.37291309e+04 1.37227529e+04 1.40197041e+04 1.40595176e+04 1.35568770e+04</data></ring16_4>
</opencv_storage>
