<?xml version="1.0"?>
<opencv_storage>
<ring16_3 type_id="opencv-matrix">
  <rows>16</rows>
  <cols>202</cols>
  <dt>f</dt>
  <data>
    6.20771942e+01 7.75690842e+00 -4.55295372e+01 -1.01784470e+02 -1.55613693e+02 -2.08862625e+02 -2.43265182e+02 -2.76653198e+02 -3.37608307e+02 -4.02666077e+02 -4.69943878e+02 -5.20821838e+02 -5.33159424e+02 -5.83025757e+02 -6.57293762e+02 -7.24897217e+02 -7.76242493e+02 -8.02315125e+02 -8.50691223e+02 -8.77062500e+02 -9.49985840e+02 -1.03157104e+03 -1.02376929e+03 -1.06659265e+03 -1.18265796e+03 -1.23854517e+03 -1.21592932e+03 -1.29185107e+03 -1.37311438e+03 -1.35121021e+03 -1.45603186e+03 -1.55072510e+03 -1.49269458e+03 -1.53795520e+03 -1.63808191e+03 -1.74139539e+03 -1.86213635e+03 -1.85278796e+03 -1.77442676e+03 -1.75989233e+03 -1.92768542e+03 -2.04436121e+03 -2.01877380e+03 -2.07272217e+03 -2.06080322e+03 -2.17239111e+03 -2.28621143e+03 -2.25081323e+03 -2.32110938e+03 -2.31516650e+03 -2.35928491e+03 -2.43985840e+03 -2.47725903e+03 -2.54643848e+03 -2.67824561e+03 -2.83194092e+03 -2.70664185e+03 -2.59508130e+03 -2.72202759e+03 -2.81942383e+03 -2.94289429e+03 -3.02333911e+03 -2.97270825e+03 -3.02112329e+03 -2.96257568e+03 -3.09807690e+03 -3.28415820e+03 -3.19219214e+03 -3.23242261e+03 -3.17007910e+03 -3.32255005e+03 -3.53944019e+03 -3.35919604e+03 -3.37668726e+03 -3.59287036e+03 -3.77524536e+03 -3.63397827e+03 -3.53959131e+03 -3.70208374e+03 -3.73162598e+03 -3.87693262e+03 -3.82977979e+03 -3.63331250e+03 -3.80271460e+03 -3.98602490e+03 -4.09748633e+03 -4.24517676e+03 -4.21008643e+03 -4.05989087e+03 -3.91524023e+03 -4.14683496e+03 -4.39839990e+03 -4.32936475e+03 -4.45072754e+03 -4.35581299e+03 -4.16967334e+03 -4.32722656e+03 -4.57629492e+03 -4.66282764e+03 -4.51836475e+03 -4.69844971e+03 -4.76944434e+03 -4.48817383e+03 -4.57242480e+03 -4.79964404e+03 -4.98615186e+03 -5.03705762e+03 -4.79941992e+03 -4.68118359e+03 -4.86685596e+03 -5.13344629e+03 -5.15988672e+03 -5.05185010e+03 -5.13489648e+03 -5.02291602e+03 -5.14053662e+03 -5.37314355e+03 -5.24412549e+03 -5.29975537e+03 -5.32220117e+03 -5.31366162e+03 -5.23080029e+03 -5.27709521e+03 -5.45611230e+03 -5.63005957e+03 -5.85109766e+03 -5.58858545e+03 -5.32860498e+03 -5.50969678e+03 -5.65293945e+03 -5.78267920e+03 -5.85250928e+03 -5.69190332e+03 -5.69917676e+03 -5.72122803e+03 -5.88597314e+03 -6.07128467e+03 -5.94387207e+03 -5.83949756e+03 -5.77770898e+03 -5.90310059e+03 -6.05169775e+03 -6.13271240e+03 -6.18984033e+03 -6.14868066e+03 -6.25723193e+03 -6.03880078e+03 -5.98951660e+03 -6.21534717e+03 -6.15808496e+03 -6.35868359e+03 -6.39113184e+03 -6.03656641e+03 -6.16019678e+03 -6.36994336e+03 -6.58270459e+03 -6.66121338e+03 -6.48010596e+03 -6.32578320e+03 -6.14303906e+03 -6.45978125e+03 -6.71764697e+03 -6.52947070e+03 -6.51723047e+03 -6.33901709e+03 -6.56101855e+03 -6.77917188e+03 -6.59950049e+03 -6.75666406e+03 -6.56138037e+03 -6.58618408e+03 -6.83226709e+03 -6.63851270e+03 -6.90911768e+03 -7.04421484e+03 -6.82055127e+03 -6.54368604e+03 -6.54267236e+03 -6.84397021e+03 -6.74018213e+03 -6.95660938e+03 -7.22846631e+03 -6.98015820e+03 -6.74645459e+03 -6.52107764e+03 -6.91193896e+03 -7.26218164e+03 -7.07081934e+03 -7.12974170e+03 -6.94245557e+03 -6.78019043e+03 -7.01545361e+03 -7.01535742e+03 -7.16174316e+03 -7.13937500e+03 -7.11056543e+03 -7.05683008e+03 -6.96473682e+03 -7.18334619e+03 -7.22342090e+03 -7.21080420e+03 -7.02323486e+03
    5.79215775e+01 6.48586559e+00 -4.39516296e+01 -9.70517731e+01 -1.50706131e+02 -2.06152344e+02 -2.42939133e+02 -2.77178497e+02 -3.37239777e+02 -4.00125122e+02 -4.65572571e+02 -5.15170532e+02 -5.28288208e+02 -5.78890808e+02 -6.51932129e+02 -7.22585876e+02 -7.74020691e+02 -7.98394653e+02 -8.47089539e+02 -8.74682190e+02 -9.48866760e+02 -1.02867639e+03 -1.01883759e+03 -1.06625671e+03 -1.18451257e+03 -1.23653503e+03 -1.21260486e+03 -1.28738489e+03 -1.37073108e+03 -1.35656494e+03 -1.45689392e+03 -1.54508557e+03 -1.49426953e+03 -1.53778308e+03 -1.63451282e+03 -1.74222241e+03 -1.85495947e+03 -1.84296704e+03 -1.77164258e+03 -1.76278027e+03 -1.93061011e+03 -2.04508179e+03 -2.02056458e+03 -2.06909888e+03 -2.05910840e+03 -2.17027563e+03 -2.27516528e+03 -2.24907812e+03 -2.31890747e+03 -2.31393628e+03 -2.35281201e+03 -2.42317236e+03 -2.46395923e+03 -2.54157446e+03 -2.67460010e+03 -2.82290063e+03 -2.68904712e+03 -2.57975439e+03 -2.71745825e+03 -2.80313184e+03 -2.93450537e+03 -3.02727808e+03 -2.96509399e+03 -3.01553589e+03 -2.96594702e+03 -3.09057397e+03 -3.26349072e+03 -3.18408130e+03 -3.22454517e+03 -3.17446948e+03 -3.31083203e+03 -3.50228174e+03 -3.35323511e+03 -3.38054761e+03 -3.57889697e+03 -3.75828735e+03 -3.61703662e+03 -3.52150684e+03 -3.68330005e+03 -3.71978979e+03 -3.87741016e+03 -3.81182300e+03 -3.59819287e+03 -3.77406128e+03 -3.95859351e+03 -4.09645068e+03 -4.26706152e+03 -4.20297656e+03 -4.03549146e+03 -3.89079346e+03 -4.13635010e+03 -4.39000781e+03 -4.30109424e+03 -4.42420557e+03 -4.33606543e+03 -4.15966992e+03 -4.31236719e+03 -4.57008301e+03 -4.64082617e+03 -4.51104541e+03 -4.69005322e+03 -4.74196777e+03 -4.46779150e+03 -4.55232520e+03 -4.77146680e+03 -4.95120752e+03 -5.01847998e+03 -4.78129346e+03 -4.64832471e+03 -4.84225000e+03 -5.11554004e+03 -5.15626367e+03 -5.04677441e+03 -5.11124658e+03 -4.99787109e+03 -5.11317969e+03 -5.32315137e+03 -5.22873193e+03 -5.26675391e+03 -5.29790918e+03 -5.31091992e+03 -5.21593604e+03 -5.25249902e+03 -5.43013965e+03 -5.60656689e+03 -5.80258691e+03 -5.56068799e+03 -5.30556885e+03 -5.47650732e+03 -5.61459180e+03 -5.76828223e+03 -5.85135205e+03 -5.67114648e+03 -5.64266406e+03 -5.64325049e+03 -5.86422900e+03 -6.07192139e+03 -5.92797900e+03 -5.81873389e+03 -5.72994482e+03 -5.86376025e+03 -6.03833643e+03 -6.11180957e+03 -6.17732471e+03 -6.12997461e+03 -6.20709180e+03 -6.04047510e+03 -5.96942773e+03 -6.19506396e+03 -6.16398682e+03 -6.34034326e+03 -6.33784766e+03 -6.05310498e+03 -6.18301270e+03 -6.30671729e+03 -6.50339453e+03 -6.60499854e+03 -6.44377881e+03 -6.33647510e+03 -6.16741162e+03 -6.43533350e+03 -6.67061377e+03 -6.49997803e+03 -6.49189893e+03 -6.35274268e+03 -6.56519287e+03 -6.76671680e+03 -6.60151660e+03 -6.72847021e+03 -6.54055957e+03 -6.57562207e+03 -6.78758838e+03 -6.62057080e+03 -6.87462598e+03 -7.01664551e+03 -6.79966602e+03 -6.52273975e+03 -6.57020654e+03 -6.82511523e+03 -6.68916260e+03 -6.90881348e+03 -7.14037354e+03 -6.95943066e+03 -6.73001807e+03 -6.51140332e+03 -6.88779395e+03 -7.22810889e+03 -6.96586865e+03 -7.07292139e+03 -6.90809033e+03 -6.75951807e+03 -7.00385352e+03 -7.01100342e+03 -7.13090186e+03 -7.06487549e+03 -7.05195654e+03 -7.01237891e+03 -6.90307910e+03 -7.15179736e+03 -7.21207373e+03 -7.15194824e+03 -6.98959668e+03
    5.03966370e+01 1.22880936e+00 -4.59650879e+01 -9.65923615e+01 -1.50097839e+02 -2.06752457e+02 -2.43495743e+02 -2.76657196e+02 -3.33765930e+02 -3.94076874e+02 -4.58196320e+02 -5.06516205e+02 -5.21151001e+02 -5.71869019e+02 -6.43856812e+02 -7.14768433e+02 -7.61540100e+02 -7.84172180e+02 -8.28862854e+02 -8.55307617e+02 -9.37099426e+02 -1.02047241e+03 -1.01067334e+03 -1.05357898e+03 -1.16569617e+03 -1.21764111e+03 -1.20069946e+03 -1.27309741e+03 -1.34637695e+03 -1.34050659e+03 -1.44317627e+03 -1.51640625e+03 -1.47211865e+03 -1.52829797e+03 -1.62128809e+03 -1.72079895e+03 -1.82041919e+03 -1.80989172e+03 -1.75177332e+03 -1.75328748e+03 -1.91466260e+03 -2.01283081e+03 -1.99224475e+03 -2.04411206e+03 -2.04103674e+03 -2.15093481e+03 -2.24512402e+03 -2.23010303e+03 -2.29733057e+03 -2.29555615e+03 -2.32995874e+03 -2.38343750e+03 -2.43313599e+03 -2.50988696e+03 -2.63282593e+03 -2.77844751e+03 -2.66180225e+03 -2.55536694e+03 -2.66727710e+03 -2.75285181e+03 -2.90711719e+03 -2.97766919e+03 -2.92586035e+03 -2.97743652e+03 -2.91483667e+03 -3.04393994e+03 -3.19618188e+03 -3.15034277e+03 -3.20274683e+03 -3.13113330e+03 -3.27220435e+03 -3.43920337e+03 -3.28446997e+03 -3.33060986e+03 -3.55541113e+03 -3.72345557e+03 -3.53655981e+03 -3.44834033e+03 -3.60734131e+03 -3.66931030e+03 -3.83988379e+03 -3.74979492e+03 -3.54611890e+03 -3.71748633e+03 -3.89548975e+03 -4.06142725e+03 -4.20871484e+03 -4.13889893e+03 -3.96736401e+03 -3.84498682e+03 -4.08868311e+03 -4.28552002e+03 -4.20474512e+03 -4.36003613e+03 -4.26226709e+03 -4.07642871e+03 -4.23328760e+03 -4.53969971e+03 -4.58549268e+03 -4.43301904e+03 -4.62715771e+03 -4.65997363e+03 -4.39154395e+03 -4.47857324e+03 -4.68707666e+03 -4.87706299e+03 -4.92934473e+03 -4.66693896e+03 -4.56108154e+03 -4.77020557e+03 -5.06816211e+03 -5.09808936e+03 -4.96160205e+03 -4.99861621e+03 -4.85815625e+03 -5.04696338e+03 -5.30064990e+03 -5.15133936e+03 -5.17241211e+03 -5.19420361e+03 -5.21116406e+03 -5.12017725e+03 -5.14554395e+03 -5.36391895e+03 -5.54903516e+03 -5.75216943e+03 -5.43854102e+03 -5.20960156e+03 -5.39732324e+03 -5.48179492e+03 -5.65668311e+03 -5.78896826e+03 -5.59347412e+03 -5.55841504e+03 -5.58084766e+03 -5.77951562e+03 -5.95874023e+03 -5.82788037e+03 -5.73774023e+03 -5.64616797e+03 -5.75761621e+03 -5.91785254e+03 -6.00968750e+03 -6.12893115e+03 -6.07087354e+03 -6.11132764e+03 -5.96885547e+03 -5.92896729e+03 -6.10849854e+03 -6.03830078e+03 -6.18495752e+03 -6.24570215e+03 -6.01041992e+03 -6.10117676e+03 -6.23871094e+03 -6.38965137e+03 -6.45066406e+03 -6.33670312e+03 -6.27645752e+03 -6.09704395e+03 -6.37177881e+03 -6.58885352e+03 -6.41501074e+03 -6.40255273e+03 -6.27530664e+03 -6.51257715e+03 -6.66612744e+03 -6.51099561e+03 -6.60725732e+03 -6.39293408e+03 -6.48238379e+03 -6.70318652e+03 -6.54706006e+03 -6.77330566e+03 -6.89567969e+03 -6.70589941e+03 -6.43762744e+03 -6.44074219e+03 -6.72025586e+03 -6.59677441e+03 -6.79520361e+03 -7.00930127e+03 -6.87127100e+03 -6.62983252e+03 -6.46204932e+03 -6.84473340e+03 -7.10052783e+03 -6.87163623e+03 -6.96710059e+03 -6.81136475e+03 -6.67286914e+03 -6.84347852e+03 -6.90125098e+03 -7.05849023e+03 -6.94887598e+03 -6.96280225e+03 -6.91977393e+03 -6.80070117e+03 -7.04822168e+03 -7.11450830e+03 -7.06155322e+03 -6.87389453e+03
    4.71085358e+01 -2.50316644e+00 -5.04629936e+01 -1.01686867e+02 -1.54245056e+02 -2.08423584e+02 -2.44062683e+02 -2.77980530e+02 -3.35339539e+02 -3.94054138e+02 -4.53930450e+02 -5.00722870e+02 -5.21455688e+02 -5.73033875e+02 -6.39748169e+02 -7.05751038e+02 -7.52213806e+02 -7.79170715e+02 -8.21512207e+02 -8.47571899e+02 -9.28235107e+02 -1.00612097e+03 -1.00043213e+03 -1.04665625e+03 -1.15211804e+03 -1.19920911e+03 -1.18644788e+03 -1.25628210e+03 -1.33250769e+03 -1.34173193e+03 -1.43207422e+03 -1.48871252e+03 -1.46075293e+03 -1.51728601e+03 -1.59757214e+03 -1.68857825e+03 -1.78331006e+03 -1.78006921e+03 -1.72795813e+03 -1.73031226e+03 -1.89368384e+03 -1.99247559e+03 -1.96953748e+03 -2.02050867e+03 -2.02007312e+03 -2.12266943e+03 -2.21548853e+03 -2.21165283e+03 -2.27221777e+03 -2.27545508e+03 -2.31207886e+03 -2.36205493e+03 -2.41512378e+03 -2.48339746e+03 -2.59430322e+03 -2.73819971e+03 -2.63741846e+03 -2.53897021e+03 -2.64565942e+03 -2.72957227e+03 -2.87429004e+03 -2.93183374e+03 -2.88646606e+03 -2.94192725e+03 -2.89522632e+03 -3.01652637e+03 -3.13949170e+03 -3.12292114e+03 -3.18567310e+03 -3.12564771e+03 -3.24152734e+03 -3.35364575e+03 -3.24732324e+03 -3.31520703e+03 -3.50367822e+03 -3.66073730e+03 -3.50297241e+03 -3.43242700e+03 -3.54950513e+03 -3.61306641e+03 -3.80514062e+03 -3.70363770e+03 -3.50662964e+03 -3.67868262e+03 -3.83734253e+03 -4.00722681e+03 -4.18794824e+03 -4.10070996e+03 -3.89163965e+03 -3.78052295e+03 -4.06673926e+03 -4.23912305e+03 -4.13814404e+03 -4.29931543e+03 -4.19127100e+03 -4.03391113e+03 -4.21592041e+03 -4.50765820e+03 -4.52216406e+03 -4.38549854e+03 -4.57802881e+03 -4.57120654e+03 -4.33843506e+03 -4.44749072e+03 -4.63193066e+03 -4.82565723e+03 -4.87587646e+03 -4.60464648e+03 -4.49856494e+03 -4.69725732e+03 -5.00654541e+03 -5.05017236e+03 -4.93108008e+03 -4.94315039e+03 -4.78151904e+03 -4.97843164e+03 -5.21530420e+03 -5.08635303e+03 -5.10529980e+03 -5.12718750e+03 -5.16422314e+03 -5.03785205e+03 -5.07359424e+03 -5.30422266e+03 -5.50493994e+03 -5.67384619e+03 -5.35768604e+03 -5.13501855e+03 -5.33094238e+03 -5.40379834e+03 -5.60486865e+03 -5.73766895e+03 -5.51776611e+03 -5.45207031e+03 -5.46501123e+03 -5.69750488e+03 -5.89342480e+03 -5.76123486e+03 -5.66136230e+03 -5.53620361e+03 -5.64708643e+03 -5.83266846e+03 -5.95625781e+03 -6.07943896e+03 -5.98683643e+03 -6.04445605e+03 -5.90454248e+03 -5.83977734e+03 -6.01533691e+03 -5.94325879e+03 -6.13027148e+03 -6.17950293e+03 -5.92388428e+03 -6.05359717e+03 -6.15097803e+03 -6.31358643e+03 -6.37741260e+03 -6.25145264e+03 -6.19083203e+03 -6.05013135e+03 -6.28578467e+03 -6.51629346e+03 -6.35846338e+03 -6.30760010e+03 -6.18440771e+03 -6.43225293e+03 -6.59324707e+03 -6.40332666e+03 -6.50367871e+03 -6.34852783e+03 -6.42172705e+03 -6.60881689e+03 -6.46918164e+03 -6.67627441e+03 -6.81789111e+03 -6.64648145e+03 -6.42581934e+03 -6.44322900e+03 -6.60650684e+03 -6.55970947e+03 -6.71937354e+03 -6.87827051e+03 -6.74819482e+03 -6.60867676e+03 -6.41880908e+03 -6.73545850e+03 -6.95104590e+03 -6.78129736e+03 -6.94177051e+03 -6.74469629e+03 -6.63027881e+03 -6.78369727e+03 -6.84698682e+03 -6.95968652e+03 -6.84828174e+03 -6.84490283e+03 -6.83824951e+03 -6.71770850e+03 -6.97454785e+03 -7.01981641e+03 -6.96377686e+03 -6.78322656e+03
    4.66216927e+01 -2.25979757e+00 -5.00919266e+01 -1.00461876e+02 -1.52814362e+02 -2.06135696e+02 -2.43441635e+02 -2.79400696e+02 -3.35763092e+02 -3.92878357e+02 -4.48866699e+02 -4.95749695e+02 -5.23437988e+02 -5.74225891e+02 -6.37472473e+02 -7.00846619e+02 -7.45962036e+02 -7.74933472e+02 -8.17156067e+02 -8.46655212e+02 -9.22330688e+02 -9.93369995e+02 -9.96994812e+02 -1.04431946e+03 -1.14131091e+03 -1.18652307e+03 -1.18135437e+03 -1.25170227e+03 -1.32190564e+03 -1.33297131e+03 -1.41862903e+03 -1.47303088e+03 -1.45454028e+03 -1.51321179e+03 -1.58990503e+03 -1.66748816e+03 -1.75394946e+03 -1.76045764e+03 -1.72019604e+03 -1.72482727e+03 -1.87358472e+03 -1.96541296e+03 -1.95029565e+03 -2.00285364e+03 -2.00463818e+03 -2.10553442e+03 -2.19346558e+03 -2.19213574e+03 -2.24304102e+03 -2.24376416e+03 -2.29085840e+03 -2.34519141e+03 -2.39810376e+03 -2.46112573e+03 -2.57066138e+03 -2.70620654e+03 -2.61577637e+03 -2.52918799e+03 -2.62288525e+03 -2.71777686e+03 -2.85065552e+03 -2.89249097e+03 -2.85873608e+03 -2.90880981e+03 -2.88165210e+03 -2.99728174e+03 -3.10237134e+03 -3.09978687e+03 -3.16925537e+03 -3.11385205e+03 -3.21501147e+03 -3.31369751e+03 -3.22269434e+03 -3.29498779e+03 -3.47409473e+03 -3.60070386e+03 -3.46320996e+03 -3.42034692e+03 -3.52851660e+03 -3.57877148e+03 -3.74300342e+03 -3.66146533e+03 -3.52344141e+03 -3.67152783e+03 -3.80750513e+03 -3.96025366e+03 -4.10712109e+03 -4.03013501e+03 -3.87023682e+03 -3.79138843e+03 -4.04838110e+03 -4.17589160e+03 -4.09715234e+03 -4.25657910e+03 -4.15429102e+03 -4.01333447e+03 -4.19143066e+03 -4.45028223e+03 -4.45270508e+03 -4.35764844e+03 -4.52973682e+03 -4.50467871e+03 -4.31292139e+03 -4.42901025e+03 -4.60854639e+03 -4.78312305e+03 -4.79719189e+03 -4.55085400e+03 -4.48292285e+03 -4.65466211e+03 -4.92029541e+03 -4.98012500e+03 -4.88587646e+03 -4.89732666e+03 -4.73346826e+03 -4.93989697e+03 -5.16779492e+03 -5.02871875e+03 -5.05394385e+03 -5.08391846e+03 -5.12192920e+03 -4.98122754e+03 -5.02710938e+03 -5.24032178e+03 -5.43960010e+03 -5.61055127e+03 -5.31091602e+03 -5.09994385e+03 -5.29430029e+03 -5.36453418e+03 -5.54046436e+03 -5.64635449e+03 -5.47515625e+03 -5.42327393e+03 -5.43064990e+03 -5.64294727e+03 -5.78406689e+03 -5.68019922e+03 -5.62681689e+03 -5.49786572e+03 -5.59002490e+03 -5.76345361e+03 -5.92441162e+03 -6.02871729e+03 -5.88541602e+03 -5.95697998e+03 -5.84031152e+03 -5.78452051e+03 -5.96125928e+03 -5.90644092e+03 -6.10425684e+03 -6.10240283e+03 -5.82654980e+03 -5.96779980e+03 -6.11164014e+03 -6.26102295e+03 -6.29569043e+03 -6.17973193e+03 -6.12826318e+03 -5.97437598e+03 -6.21520361e+03 -6.43808105e+03 -6.30207959e+03 -6.27259619e+03 -6.15950391e+03 -6.34786572e+03 -6.53841797e+03 -6.38139062e+03 -6.40122949e+03 -6.28260059e+03 -6.35031104e+03 -6.51449072e+03 -6.42414453e+03 -6.59040332e+03 -6.70637891e+03 -6.54552246e+03 -6.37673730e+03 -6.35888281e+03 -6.53344873e+03 -6.51629688e+03 -6.64097119e+03 -6.77287256e+03 -6.67469922e+03 -6.56549219e+03 -6.42096045e+03 -6.67453662e+03 -6.87202637e+03 -6.73490137e+03 -6.84121143e+03 -6.69315918e+03 -6.56063379e+03 -6.72594629e+03 -6.78798291e+03 -6.85917090e+03 -6.81042725e+03 -6.79183105e+03 -6.78511475e+03 -6.67610547e+03 -6.93222266e+03 -6.89848340e+03 -6.91034277e+03 -6.76388525e+03
    4.78994942e+01 -7.27524877e-01 -4.80602226e+01 -9.77640076e+01 -1.49968689e+02 -2.04103424e+02 -2.41588547e+02 -2.77257080e+02 -3.32694702e+02 -3.88255859e+02 -4.43563995e+02 -4.92254364e+02 -5.20820068e+02 -5.70958252e+02 -6.32543152e+02 -6.92508728e+02 -7.37127075e+02 -7.67799500e+02 -8.15291931e+02 -8.50221436e+02 -9.18049255e+02 -9.79364563e+02 -9.88481567e+02 -1.04109851e+03 -1.13084253e+03 -1.17476379e+03 -1.17426880e+03 -1.24081262e+03 -1.31728552e+03 -1.33478369e+03 -1.40577441e+03 -1.46154272e+03 -1.45803748e+03 -1.51048010e+03 -1.58129431e+03 -1.65446301e+03 -1.73134436e+03 -1.74126355e+03 -1.71681873e+03 -1.72748132e+03 -1.86282581e+03 -1.95270959e+03 -1.95424365e+03 -2.00178979e+03 -1.98980786e+03 -2.08453687e+03 -2.17432349e+03 -2.17496240e+03 -2.21932593e+03 -2.22633691e+03 -2.27650659e+03 -2.32404565e+03 -2.37407251e+03 -2.44803613e+03 -2.56318652e+03 -2.67906079e+03 -2.58480762e+03 -2.51346924e+03 -2.61537183e+03 -2.69847925e+03 -2.82013745e+03 -2.86454102e+03 -2.83601074e+03 -2.88216333e+03 -2.86412256e+03 -2.99541406e+03 -3.09309082e+03 -3.06232471e+03 -3.11009814e+03 -3.06993066e+03 -3.20237622e+03 -3.29971265e+03 -3.20997852e+03 -3.27027393e+03 -3.41242627e+03 -3.54771777e+03 -3.45100854e+03 -3.41674683e+03 -3.51474146e+03 -3.55869897e+03 -3.71495776e+03 -3.64405664e+03 -3.50997363e+03 -3.65526465e+03 -3.77300146e+03 -3.92052563e+03 -4.05256934e+03 -3.97660400e+03 -3.85303223e+03 -3.80169336e+03 -4.01662012e+03 -4.12808936e+03 -4.08399634e+03 -4.21712793e+03 -4.13462451e+03 -4.02831616e+03 -4.19623975e+03 -4.41424658e+03 -4.41330176e+03 -4.31529883e+03 -4.47310498e+03 -4.43625488e+03 -4.28874902e+03 -4.41701514e+03 -4.58589648e+03 -4.74514014e+03 -4.78764014e+03 -4.55776270e+03 -4.47269141e+03 -4.60392578e+03 -4.85973096e+03 -4.92105908e+03 -4.84842285e+03 -4.88687207e+03 -4.73635059e+03 -4.92460840e+03 -5.08863525e+03 -4.96452686e+03 -5.02357764e+03 -5.08532471e+03 -5.08619824e+03 -4.93302246e+03 -4.98786426e+03 -5.21135938e+03 -5.43087598e+03 -5.55218311e+03 -5.24506055e+03 -5.08726318e+03 -5.26998193e+03 -5.33114844e+03 -5.52055859e+03 -5.59777344e+03 -5.41676855e+03 -5.37954346e+03 -5.35681006e+03 -5.59190234e+03 -5.74262793e+03 -5.63413379e+03 -5.58773486e+03 -5.45472559e+03 -5.54634521e+03 -5.72533643e+03 -5.90100830e+03 -5.96069531e+03 -5.81194727e+03 -5.88764111e+03 -5.79724951e+03 -5.71816211e+03 -5.88674658e+03 -5.85593457e+03 -6.04567920e+03 -6.05587695e+03 -5.78235254e+03 -5.90750586e+03 -6.05549365e+03 -6.21307178e+03 -6.24455127e+03 -6.12668652e+03 -6.07334570e+03 -5.94358154e+03 -6.20152490e+03 -6.40684180e+03 -6.24788623e+03 -6.18693701e+03 -6.04196436e+03 -6272. -6.49393066e+03 -6.32794287e+03 -6.37195752e+03 -6.24619434e+03 -6.31323193e+03 -6.49718945e+03 -6.35152979e+03 -6.54166309e+03 -6.67769580e+03 -6.51378271e+03 -6.31144629e+03 -6.28062158e+03 -6.48984814e+03 -6.43485693e+03 -6.58287012e+03 -6.77839062e+03 -6.65049707e+03 -6.50987549e+03 -6.33491895e+03 -6.58258936e+03 -6.79674951e+03 -6.67423633e+03 -6.79477344e+03 -6.64553320e+03 -6.50755420e+03 -6.68800098e+03 -6.72645801e+03 -6.78078320e+03 -6.76635596e+03 -6.73724707e+03 -6.68551758e+03 -6.64580762e+03 -6.85026465e+03 -6.87212354e+03 -6.82097510e+03 -6.69730273e+03
    4.79511185e+01 -5.65048397e-01 -4.77975082e+01 -9.78014984e+01 -1.48907669e+02 -2.01570892e+02 -2.39613663e+02 -2.74993652e+02 -3.29366821e+02 -3.86040497e+02 -4.41828064e+02 -4.88590973e+02 -5.14809937e+02 -5.64515320e+02 -6.27692017e+02 -6.90969849e+02 -7.36992004e+02 -7.62569946e+02 -8.12759766e+02 -8.50100281e+02 -9.14165405e+02 -9.74934570e+02 -9.81795166e+02 -1.03291174e+03 -1.12403271e+03 -1.17007239e+03 -1.17070544e+03 -1.23747949e+03 -1.31122607e+03 -1.32068079e+03 -1.39082092e+03 -1.45722400e+03 -1.45475354e+03 -1.50040271e+03 -1.57301111e+03 -1.65378784e+03 -1.73131946e+03 -1.73337463e+03 -1.71463013e+03 -1.73054126e+03 -1.84887817e+03 -1.93964832e+03 -1.95543494e+03 -1.99536011e+03 -1.98569019e+03 -2.08523169e+03 -2.17155835e+03 -2.16717822e+03 -2.21807446e+03 -2.22986597e+03 -2.26819043e+03 -2.31039282e+03 -2.36102979e+03 -2.44024316e+03 -2.55720435e+03 -2.66160327e+03 -2.57638550e+03 -2.51950171e+03 -2.60600732e+03 -2.67427637e+03 -2.80344629e+03 -2.85820898e+03 -2.82392285e+03 -2.86829443e+03 -2.86223218e+03 -2.98593457e+03 -3.07979712e+03 -3.05412134e+03 -3.08296021e+03 -3.04300342e+03 -3.18127100e+03 -3.29760205e+03 -3.20727930e+03 -3.24953784e+03 -3.38772119e+03 -3.51780078e+03 -3.41916919e+03 -3.38786621e+03 -3.50693311e+03 -3.55468262e+03 -3.70890112e+03 -3.62387207e+03 -3.47286206e+03 -3.62052930e+03 -3.76374854e+03 -3.90486279e+03 -4.00267798e+03 -3.94653979e+03 -3.83592725e+03 -3.80080371e+03 -3.99990796e+03 -4.11348633e+03 -4.07227051e+03 -4.20980322e+03 -4.13014990e+03 -4.00500024e+03 -4.15602490e+03 -4.37408301e+03 -4.38773291e+03 -4.29750781e+03 -4.44697949e+03 -4.43762598e+03 -4.29256055e+03 -4.38693506e+03 -4.54765283e+03 -4.71828467e+03 -4.77573145e+03 -4.56759570e+03 -4.47777246e+03 -4.60612744e+03 -4.82968945e+03 -4.86498975e+03 -4.82212109e+03 -4.85342480e+03 -4.74983984e+03 -4.92310156e+03 -5.04816406e+03 -4.93329834e+03 -5.00956055e+03 -5.06619336e+03 -5.05376514e+03 -4.94984863e+03 -5.00656104e+03 -5.18443213e+03 -5.36673438e+03 -5.48970508e+03 -5.22326514e+03 -5.08921484e+03 -5.24483838e+03 -5.30811719e+03 -5.49360254e+03 -5.54792529e+03 -5.40033936e+03 -5.34243018e+03 -5.32329346e+03 -5.58029395e+03 -5.74209521e+03 -5.61727686e+03 -5.57115771e+03 -5.43866162e+03 -5.52993848e+03 -5.70381592e+03 -5.86542773e+03 -5.91509326e+03 -5.76277832e+03 -5.87395996e+03 -5.74772656e+03 -5.67968359e+03 -5.87304004e+03 -5.82566406e+03 -6.01672852e+03 -6.02119092e+03 -5.77147217e+03 -5.86144775e+03 -5.97879199e+03 -6.16622754e+03 -6.20974609e+03 -6.09433203e+03 -6.02840381e+03 -5.91518799e+03 -6.17086182e+03 -6.37660889e+03 -6.20526465e+03 -6.13877441e+03 -6.00442090e+03 -6.21490576e+03 -6.43968311e+03 -6.30518994e+03 -6.35189648e+03 -6.20767041e+03 -6.28216162e+03 -6.47598340e+03 -6.30834619e+03 -6.52323145e+03 -6.63980908e+03 -6.47619824e+03 -6.29807031e+03 -6.28786035e+03 -6.45180127e+03 -6.34796826e+03 -6.52075049e+03 -6.76854688e+03 -6.64803857e+03 -6.45737158e+03 -6.28285596e+03 -6.53043457e+03 -6.73643945e+03 -6.65263232e+03 -6.81883496e+03 -6.63548926e+03 -6.49475537e+03 -6.66386475e+03 -6.66560449e+03 -6.79609033e+03 -6.72733252e+03 -6.69774805e+03 -6.68698145e+03 -6.63877344e+03 -6.80096826e+03 -6.80975439e+03 -6.81166406e+03 -6.70326904e+03
    4.72615166e+01 -1.06247270e+00 -4.78037910e+01 -9.78658829e+01 -1.48663254e+02 -2.02090912e+02 -2.40212708e+02 -2.73566833e+02 -3.27400208e+02 -3.84434692e+02 -4.41889435e+02 -4.88854797e+02 -5.10755432e+02 -5.60994995e+02 -6.25885254e+02 -6.89386719e+02 -7.35962463e+02 -7.59977966e+02 -8.10278503e+02 -8.43031677e+02 -9.09769226e+02 -9.77049194e+02 -9.73875549e+02 -1.02345660e+03 -1.12304004e+03 -1.17029395e+03 -1.16227100e+03 -1.23244177e+03 -1.31475647e+03 -1.30813513e+03 -1.38431348e+03 -1.45948157e+03 -1.43755298e+03 -1.48089441e+03 -1.56155908e+03 -1.66179297e+03 -1.75449634e+03 -1.73938147e+03 -1.70036694e+03 -1.70251074e+03 -1.83157410e+03 -1.94267542e+03 -1.94797754e+03 -1.98359485e+03 -1.96998328e+03 -2.07550098e+03 -2.17687036e+03 -2.15222217e+03 -2.21286084e+03 -2.23156226e+03 -2.26240991e+03 -2.31586206e+03 -2.36380029e+03 -2.43843579e+03 -2.54267773e+03 -2.66526587e+03 -2.58303223e+03 -2.49889087e+03 -2.59424683e+03 -2.67669189e+03 -2.80433618e+03 -2.86056641e+03 -2.81042529e+03 -2.85937598e+03 -2.84679980e+03 -2.97186011e+03 -3.08593921e+03 -3.02723804e+03 -3.06505298e+03 -3.03698657e+03 -3.17091406e+03 -3.30592310e+03 -3.19833374e+03 -3.23418359e+03 -3.38159399e+03 -3.52322559e+03 -3.42858447e+03 -3.37307812e+03 -3.49364331e+03 -3.54233911e+03 -3.71203198e+03 -3.63030273e+03 -3.44744067e+03 -3.59325977e+03 -3.73685205e+03 -3.89162549e+03 -4.01971362e+03 -3.94954932e+03 -3.83867822e+03 -3.78241528e+03 -3.97405322e+03 -4.11647412e+03 -4.07378442e+03 -4.19715625e+03 -4.11428564e+03 -3.97660254e+03 -4.12825391e+03 -4.38718799e+03 -4.40816504e+03 -4.27455713e+03 -4.43214355e+03 -4.43696289e+03 -4.24653467e+03 -4.34707861e+03 -4.53499658e+03 -4.71927393e+03 -4.81793018e+03 -4.57437842e+03 -4.43131299e+03 -4.58394043e+03 -4.83931006e+03 -4.87455762e+03 -4.79269824e+03 -4.82741650e+03 -4.76700732e+03 -4.90240967e+03 -5.01525635e+03 -4.93692969e+03 -5.02239160e+03 -5.06424951e+03 -5.04965283e+03 -4.95481152e+03 -5.00235156e+03 -5.18034619e+03 -5.34241602e+03 -5.46306494e+03 -5.22469922e+03 -5.09475244e+03 -5.25196777e+03 -5.32080127e+03 -5.45634961e+03 -5.50028223e+03 -5.38864844e+03 -5.33370068e+03 -5.32351855e+03 -5.59441504e+03 -5.75317822e+03 -5.63879785e+03 -5.55684766e+03 -5.41875928e+03 -5.54056543e+03 -5.70119385e+03 -5.79623584e+03 -5.87245508e+03 -5.79645068e+03 -5.89953320e+03 -5.73822998e+03 -5.68514941e+03 -5.86644336e+03 -5.79243164e+03 -5.98350098e+03 -6.02395801e+03 -5.75702246e+03 -5.85656055e+03 -5.97001904e+03 -6.17714209e+03 -6.25140527e+03 -6.09408203e+03 -6.00478564e+03 -5.84503027e+03 -6.13511328e+03 -6.39814502e+03 -6.20669434e+03 -6.15284521e+03 -5.95153711e+03 -6.20517822e+03 -6.46108301e+03 -6.26316748e+03 -6.34348389e+03 -6.22325586e+03 -6.26366602e+03 -6.47698389e+03 -6.32062598e+03 -6.49240723e+03 -6.62618018e+03 -6.45972900e+03 -6.27570068e+03 -6.25654199e+03 -6.46044922e+03 -6.33149219e+03 -6.56944824e+03 -6.78844434e+03 -6.62149023e+03 -6.39694043e+03 -6.21675195e+03 -6.52514404e+03 -6.78336621e+03 -6.65655664e+03 -6.78102197e+03 -6.63194775e+03 -6.45170703e+03 -6.65404688e+03 -6.66318066e+03 -6.77839551e+03 -6.72567920e+03 -6.68539990e+03 -6.64035352e+03 -6.56815869e+03 -6.76981152e+03 -6.79962842e+03 -6.78939014e+03 -6.67589941e+03
    4.75990219e+01 -7.59694517e-01 -4.74475632e+01 -9.74453049e+01 -1.49150635e+02 -2.03668869e+02 -2.39003067e+02 -2.70115601e+02 -3.26023254e+02 -3.84967926e+02 -4.44333191e+02 -4.90296814e+02 -5.06571411e+02 -5.56279907e+02 -6.23329041e+02 -6.91991882e+02 -7.40332031e+02 -7.60807678e+02 -8.12415955e+02 -8.40611877e+02 -9.09084106e+02 -9.80566528e+02 -9.69776733e+02 -1.01927393e+03 -1.12745850e+03 -1.17426550e+03 -1.15707397e+03 -1.23434094e+03 -1.32007812e+03 -1.30194580e+03 -1.38324731e+03 -1.45778967e+03 -1.42533350e+03 -1.47362866e+03 -1.56371521e+03 -1.67152368e+03 -1.77226038e+03 -1.75018127e+03 -1.69267468e+03 -1.68672815e+03 -1.82997925e+03 -1.94045996e+03 -1.93344495e+03 -1.97855908e+03 -1.96383130e+03 -2.07604492e+03 -2.18077905e+03 -2.14311816e+03 -2.20721606e+03 -2.21842407e+03 -2.25102539e+03 -2.31199585e+03 -2.35592725e+03 -2.42810962e+03 -2.53624292e+03 -2.68283691e+03 -2.57699536e+03 -2.46913135e+03 -2.57672070e+03 -2.66659595e+03 -2.81528882e+03 -2.89314673e+03 -2.81587646e+03 -2.85401636e+03 -2.82997412e+03 -2.95419092e+03 -3.09505713e+03 -3.02654419e+03 -3.06488623e+03 -3.03430518e+03 -3.16553589e+03 -3.30949609e+03 -3.19645972e+03 -3.22958081e+03 -3.39258276e+03 -3.55961890e+03 -3.42451392e+03 -3.35353638e+03 -3.50222412e+03 -3.54116626e+03 -3.71328296e+03 -3.61796338e+03 -3.40205200e+03 -3.55080371e+03 -3.72539014e+03 -3.90146118e+03 -4.05546533e+03 -3.97841406e+03 -3.81845483e+03 -3.72346191e+03 -3.96896289e+03 -4.16136279e+03 -4.07506006e+03 -4.20647314e+03 -4.10346875e+03 -3.92445386e+03 -4.10256104e+03 -4.39517188e+03 -4.42156201e+03 -4.27134082e+03 -4.44335303e+03 -4.46601221e+03 -4.22135352e+03 -4.33063916e+03 -4.53866406e+03 -4.72893311e+03 -4.82182715e+03 -4.56567285e+03 -4.41491846e+03 -4.56036914e+03 -4.84510107e+03 -4.89655225e+03 -4.80393359e+03 -4.82967822e+03 -4.73136328e+03 -4.86077441e+03 -5.03156348e+03 -4.95102295e+03 -5.02476514e+03 -5.05421387e+03 -5.04605469e+03 -4.96339941e+03 -5.00451562e+03 -5.18913818e+03 -5.32872900e+03 -5.46109131e+03 -5.24058105e+03 -5.07221191e+03 -5.21753662e+03 -5.31544678e+03 -5.45114844e+03 -5.54107422e+03 -5.40549463e+03 -5.33061279e+03 -5.33064600e+03 -5.61308252e+03 -5.80006055e+03 -5.64971826e+03 -5.52911963e+03 -5.40032422e+03 -5.53988525e+03 -5.75151367e+03 -5.82613770e+03 -5.87388477e+03 -5.84083740e+03 -5.87935156e+03 -5.71021240e+03 -5.67292627e+03 -5.86136719e+03 -5.82750928e+03 -5.99524414e+03 -6.00642529e+03 -5.78757178e+03 -5.86492041e+03 -5.95197461e+03 -6.16580762e+03 -6.26772412e+03 -6.12391357e+03 -6.00933008e+03 -5.82316113e+03 -6.11293262e+03 -6.37999268e+03 -6.19964160e+03 -6.17811279e+03 -5.96470605e+03 -6.23371387e+03 -6.45222217e+03 -6.29155469e+03 -6.34260303e+03 -6.19872754e+03 -6.28691602e+03 -6.48388086e+03 -6.33956445e+03 -6.52885742e+03 -6.64174512e+03 -6.41501318e+03 -6.22445459e+03 -6.25330420e+03 -6.46531787e+03 -6.32838135e+03 -6.59852539e+03 -6.77423682e+03 -6.59446631e+03 -6.35733936e+03 -6.15350439e+03 -6.56246387e+03 -6.84833740e+03 -6.63831201e+03 -6.78619775e+03 -6.60649268e+03 -6.44556348e+03 -6.62184082e+03 -6.62550928e+03 -6.78204395e+03 -6.73414307e+03 -6.68600391e+03 -6.65029980e+03 -6.55960059e+03 -6.81227295e+03 -6.80957227e+03 -6.73642041e+03 -6.62955957e+03
    4.71460304e+01 -1.40056348e+00 -4.85349121e+01 -9.78560791e+01 -1.49113800e+02 -2.04091019e+02 -2.40144318e+02 -2.72014038e+02 -3.27559845e+02 -3.85662354e+02 -4.47489990e+02 -4.94713593e+02 -5.09965637e+02 -5.57961304e+02 -6.23996460e+02 -6.95672485e+02 -7.41031494e+02 -7.63237000e+02 -8.13651001e+02 -8.34450867e+02 -9.05659729e+02 -9.83357239e+02 -9.76821594e+02 -1.02624609e+03 -1.13442236e+03 -1.17646912e+03 -1.15346240e+03 -1.23431689e+03 -1.32150439e+03 -1.29893640e+03 -1.39471704e+03 -1.46953955e+03 -1.41663794e+03 -1.47135693e+03 -1.57375330e+03 -1.68029431e+03 -1.77733508e+03 -1.75403821e+03 -1.69412366e+03 -1.69202368e+03 -1.84110950e+03 -1.94032947e+03 -1.92489905e+03 -1.97860913e+03 -1.97309961e+03 -2.07907129e+03 -2.18671021e+03 -2.16069604e+03 -2.20694922e+03 -2.21183105e+03 -2.26891284e+03 -2.33060303e+03 -2.36312842e+03 -2.43290430e+03 -2.54360596e+03 -2.70845898e+03 -2.58485620e+03 -2.44787036e+03 -2.57992285e+03 -2.68319287e+03 -2.83635645e+03 -2.91660034e+03 -2.82161841e+03 -2.85531372e+03 -2.83458105e+03 -2.96403052e+03 -3.10009106e+03 -3.02767407e+03 -3.08159717e+03 -3.04746338e+03 -3.18413159e+03 -3.33396997e+03 -3.18689844e+03 -3.24038086e+03 -3.43722998e+03 -3.61233838e+03 -3.44353296e+03 -3.34989233e+03 -3.51431641e+03 -3.54519189e+03 -3.70260864e+03 -3.63728223e+03 -3.44297046e+03 -3.58273608e+03 -3.74000562e+03 -3.92399878e+03 -4.07897021e+03 -3.98256909e+03 -3.82959448e+03 -3.73172583e+03 -3.98007544e+03 -4.18252393e+03 -4.07920459e+03 -4.20247705e+03 -4.11223828e+03 -3.93858179e+03 -4.10378125e+03 -4.41574414e+03 -4.45469141e+03 -4.29097119e+03 -4.49158057e+03 -4.48850781e+03 -4.19861963e+03 -4.32194580e+03 -4.55677197e+03 -4.74190967e+03 -4.83931787e+03 -4.56567480e+03 -4.40743262e+03 -4.57410547e+03 -4.88062695e+03 -4.94140674e+03 -4.81114209e+03 -4.84507031e+03 -4.73724707e+03 -4.85673291e+03 -5.05629492e+03 -4.99198145e+03 -5.05610205e+03 -5.05133447e+03 -5.04369922e+03 -4.95372559e+03 -5.00980127e+03 -5.22369873e+03 -5.36930029e+03 -5.50657861e+03 -5.25976367e+03 -5.07743799e+03 -5.21991162e+03 -5.31467725e+03 -5.46541113e+03 -5.57638965e+03 -5.41477930e+03 -5.37909229e+03 -5.38459814e+03 -5.60429688e+03 -5.79835596e+03 -5.64539600e+03 -5.51714697e+03 -5.40068066e+03 -5.54882520e+03 -5.76720508e+03 -5.82475488e+03 -5.92120020e+03 -5.88821582e+03 -5.90341309e+03 -5.71393945e+03 -5.68897803e+03 -5.88555615e+03 -5.87779248e+03 -6.03298877e+03 -6.01123291e+03 -5.78928662e+03 -5.89994971e+03 -6.00848145e+03 -6.19589209e+03 -6.26614404e+03 -6.14050439e+03 -6.03705469e+03 -5.86032227e+03 -6.13968164e+03 -6.34014355e+03 -6.24332080e+03 -6.21440332e+03 -6.04380811e+03 -6.24798291e+03 -6.45377588e+03 -6.28755273e+03 -6.38249365e+03 -6.22947900e+03 -6.28407129e+03 -6.47012598e+03 -6.34367090e+03 -6.53653027e+03 -6.66172656e+03 -6.46983594e+03 -6.23136621e+03 -6.29217529e+03 -6.50434180e+03 -6.39463379e+03 -6.59141211e+03 -6.77298584e+03 -6.59370801e+03 -6.40160449e+03 -6.24632666e+03 -6.61475439e+03 -6.86814453e+03 -6.61902490e+03 -6.76901562e+03 -6.63955908e+03 -6.45791504e+03 -6.64591309e+03 -6.66047363e+03 -6.79756250e+03 -6.72491699e+03 -6.77072168e+03 -6.68675049e+03 -6.55142578e+03 -6.82336621e+03 -6.86109229e+03 -6.79236475e+03 -6.66297559e+03
    5.09564667e+01 2.10105276e+00 -4.56703453e+01 -9.49125671e+01 -1.46188660e+02 -2.01094452e+02 -2.38534164e+02 -2.72275391e+02 -3.27517517e+02 -3.86598511e+02 -4.48221588e+02 -4.93828400e+02 -5.11734589e+02 -5.60010132e+02 -6.26373901e+02 -6.99034851e+02 -7.42932190e+02 -7.68323425e+02 -8.15349792e+02 -8.37684814e+02 -9.10166504e+02 -9.84142334e+02 -9.85602905e+02 -1.03695642e+03 -1.13637793e+03 -1.17524817e+03 -1.16209326e+03 -1.23585620e+03 -1.31406433e+03 -1.31950366e+03 -1.41610645e+03 -1.46525049e+03 -1.41646240e+03 -1.47785718e+03 -1.58015381e+03 -1.68415759e+03 -1.77600171e+03 -1.75538000e+03 -1.70431372e+03 -1.71321887e+03 -1.85642358e+03 -1.93685754e+03 -1.93523352e+03 -1.99822595e+03 -1.98521582e+03 -2.08564917e+03 -2.18993994e+03 -2.18191675e+03 -2.22141943e+03 -2.22675977e+03 -2.28975708e+03 -2.33821729e+03 -2.37346167e+03 -2.45068774e+03 -2.55705835e+03 -2.69336743e+03 -2.58886035e+03 -2.48799048e+03 -2.59421558e+03 -2.67341357e+03 -2.84715234e+03 -2.92979932e+03 -2.84924487e+03 -2.86843311e+03 -2.83264185e+03 -2.97512329e+03 -3.09995190e+03 -3.06653052e+03 -3.11677954e+03 -3.06114941e+03 -3.20948291e+03 -3.33116650e+03 -3.19739722e+03 -3.25609985e+03 -3.45161475e+03 -3.62928809e+03 -3.44798462e+03 -3.36664575e+03 -3.50746704e+03 -3.54548682e+03 -3.72775024e+03 -3.65089917e+03 -3.45563525e+03 -3.61697803e+03 -3.77941162e+03 -3.93702368e+03 -4.09756689e+03 -4.01853882e+03 -3.84183936e+03 -3.73296436e+03 -4.00741650e+03 -4.19520215e+03 -4.08574268e+03 -4.21924316e+03 -4.11523291e+03 -3.96195068e+03 -4.12821680e+03 -4.43005664e+03 -4.47410498e+03 -4.30070801e+03 -4.50286279e+03 -4.50656445e+03 -4.24969141e+03 -4.35999268e+03 -4.55594629e+03 -4.74552637e+03 -4.81055127e+03 -4.57362891e+03 -4.45618115e+03 -4.62011963e+03 -4.88731494e+03 -4.93954834e+03 -4.84917285e+03 -4.86339453e+03 -4.72665234e+03 -4.89154248e+03 -5.12511816e+03 -5.02366406e+03 -5.05223633e+03 -5.04702100e+03 -5.06144482e+03 -4.98893408e+03 -5.03886963e+03 -5.21029150e+03 -5.39755420e+03 -5.54570850e+03 -5.25577051e+03 -5.05476270e+03 -5.22244141e+03 -5.33123584e+03 -5.53627686e+03 -5.62750244e+03 -5.38964844e+03 -5.39015527e+03 -5.43973193e+03 -5.62727979e+03 -5.81372803e+03 -5.64464453e+03 -5.54251367e+03 -5.43420264e+03 -5.56460254e+03 -5.77840820e+03 -5.85579834e+03 -5.94771973e+03 -5.90388818e+03 -5.94545703e+03 -5.77231250e+03 -5.71691113e+03 -5.93893848e+03 -5.90271533e+03 -6.03676758e+03 -6.01708984e+03 -5.83223486e+03 -5.95226416e+03 -6.03726172e+03 -6.19511279e+03 -6.25520117e+03 -6.15407959e+03 -6.11492285e+03 -5.96679639e+03 -6.18271680e+03 -6.35844385e+03 -6.26189795e+03 -6.20645166e+03 -6.09690479e+03 -6.30022949e+03 -6.46155420e+03 -6.32333789e+03 -6.38886084e+03 -6.26098779e+03 -6.32028711e+03 -6.46836035e+03 -6.34596094e+03 -6.59182959e+03 -6.70471875e+03 -6.52275684e+03 -6.27297949e+03 -6.28528662e+03 -6.49550928e+03 -6.42867480e+03 -6.58734668e+03 -6.79936377e+03 -6.64047656e+03 -6.41928174e+03 -6.31086084e+03 -6.64516064e+03 -6.84968750e+03 -6.66560742e+03 -6.80765039e+03 -6.65563916e+03 -6.54523486e+03 -6.68995312e+03 -6.71033936e+03 -6.80564062e+03 -6.74405371e+03 -6.78601318e+03 -6.75873340e+03 -6.61520264e+03 -6.85042139e+03 -6.88026172e+03 -6.84164111e+03 -6.69189941e+03
    5.13575554e+01 2.49269009e+00 -4.50093117e+01 -9.44369431e+01 -1.46710052e+02 -2.01983383e+02 -2.42073975e+02 -2.77334778e+02 -3.29859833e+02 -3.87207611e+02 -4.46686737e+02 -4.92101196e+02 -5.16139465e+02 -5.67593689e+02 -6.30803772e+02 -6.97037048e+02 -7.41416626e+02 -7.71390259e+02 -8.18736206e+02 -8.45450378e+02 -9.16718872e+02 -9.87481079e+02 -9.97785400e+02 -1.04670642e+03 -1.14140186e+03 -1.18316528e+03 -1.17383008e+03 -1.24019861e+03 -1.31661792e+03 -1.33293921e+03 -1.42693469e+03 -1.48105847e+03 -1.43834692e+03 -1.49422241e+03 -1.58968359e+03 -1.68923535e+03 -1.77868530e+03 -1.76265320e+03 -1.72474487e+03 -1.74095374e+03 -1.87469983e+03 -1.94876746e+03 -1.95295496e+03 -2.00520435e+03 -1.99967310e+03 -2.11708032e+03 -2.20280298e+03 -2.19303223e+03 -2.23857544e+03 -2.24803394e+03 -2.31068091e+03 -2.34378345e+03 -2.38734839e+03 -2.47017188e+03 -2.57180444e+03 -2.69612109e+03 -2.61018457e+03 -2.53322925e+03 -2.63203320e+03 -2.69227539e+03 -2.84777856e+03 -2.92503760e+03 -2.85346509e+03 -2.88849976e+03 -2.87208545e+03 -2.99813232e+03 -3.11601807e+03 -3.10951636e+03 -3.14556250e+03 -3.08002637e+03 -3.22700781e+03 -3.34957959e+03 -3.22615454e+03 -3.29468774e+03 -3.47368799e+03 -3.61669873e+03 -3.46690283e+03 -3.40173950e+03 -3.52805103e+03 -3.57477783e+03 -3.75176953e+03 -3.67821191e+03 -3.51288354e+03 -3.67174927e+03 -3.81868359e+03 -3.95934521e+03 -4.10399023e+03 -4.03437622e+03 -3.88124927e+03 -3.78116260e+03 -4.03649683e+03 -4.20509131e+03 -4.12426123e+03 -4.24857471e+03 -4.14704785e+03 -4.01802319e+03 -4.17636426e+03 -4.44625049e+03 -4.48806104e+03 -4.34672314e+03 -4.54580957e+03 -4.53837891e+03 -4.27246484e+03 -4.38448633e+03 -4.60051562e+03 -4.78227881e+03 -4.84412256e+03 -4.59452539e+03 -4.48092236e+03 -4.66649023e+03 -4.92300732e+03 -4.97653564e+03 -4.87769092e+03 -4.89901367e+03 -4.77780371e+03 -4.95532324e+03 -5.15407373e+03 -5.04567334e+03 -5.09683398e+03 -5.08960400e+03 -5.07625635e+03 -5.01344678e+03 -5.07564893e+03 -5.23551904e+03 -5.41432227e+03 -5.57748242e+03 -5.27180371e+03 -5.09430811e+03 -5.28621289e+03 -5.38055518e+03 -5.59034668e+03 -5.66795459e+03 -5.44103027e+03 -5.44476123e+03 -5.44886621e+03 -5.62866162e+03 -5.83721045e+03 -5.70881396e+03 -5.58329736e+03 -5.46505908e+03 -5.60802637e+03 -5.79869580e+03 -5.86878125e+03 -5.95871045e+03 -5.90546973e+03 -5.98116064e+03 -5.81688574e+03 -5.78316455e+03 -5.98470898e+03 -5.93005908e+03 -6.11163428e+03 -6.09068799e+03 -5.85343848e+03 -5.95964893e+03 -6.09189893e+03 -6.26819043e+03 -6.31030957e+03 -6.18902246e+03 -6.15024072e+03 -6.01669287e+03 -6.21758398e+03 -6.41961133e+03 -6.31200439e+03 -6.26786084e+03 -6.15922754e+03 -6.31941943e+03 -6.50671143e+03 -6.39470068e+03 -6.43575732e+03 -6.33776025e+03 -6.37317529e+03 -6.47979932e+03 -6.38360938e+03 -6.61506592e+03 -6.76888623e+03 -6.55532568e+03 -6.34356982e+03 -6.36806348e+03 -6.52868066e+03 -6.49858203e+03 -6.65712061e+03 -6.78371924e+03 -6.66254346e+03 -6.53696289e+03 -6.39068115e+03 -6.69893604e+03 -6.87083936e+03 -6.70881006e+03 -6.80801807e+03 -6.72640479e+03 -6.57110791e+03 -6.71225732e+03 -6.78866602e+03 -6.86977490e+03 -6.79612402e+03 -6.80318506e+03 -6.75349072e+03 -6.68251123e+03 -6.88402637e+03 -6.94811279e+03 -6.89995508e+03 -6.71897559e+03
    5.07752380e+01 1.42137754e+00 -4.64626312e+01 -9.71111450e+01 -1.50706223e+02 -2.07255829e+02 -2.44624908e+02 -2.78223358e+02 -3.31402954e+02 -3.90459320e+02 -4.50224030e+02 -4.97160614e+02 -5.24705872e+02 -5.78426086e+02 -6.40801086e+02 -7.02470093e+02 -7.48480957e+02 -7.78450562e+02 -8.24715210e+02 -8.57316528e+02 -9.29958618e+02 -9.94831665e+02 -1.00129297e+03 -1.05310718e+03 -1.14796741e+03 -1.19366187e+03 -1.19089014e+03 -1.25209363e+03 -1.32546936e+03 -1.34871558e+03 -1.43516858e+03 -1.48863232e+03 -1.46207043e+03 -1.51489771e+03 -1.59973340e+03 -1.69611194e+03 -1.78891699e+03 -1.77927075e+03 -1.74441528e+03 -1.76002112e+03 -1.88687842e+03 -1.96940112e+03 -1.98840076e+03 -2.03593958e+03 -2.01346375e+03 -2.13577368e+03 -2.22826782e+03 -2.21385913e+03 -2.25711938e+03 -2.26612866e+03 -2.32968262e+03 -2.35959497e+03 -2.40547095e+03 -2.49605005e+03 -2.60853760e+03 -2.73065259e+03 -2.62777954e+03 -2.55425879e+03 -2.65488916e+03 -2.72809351e+03 -2.88262085e+03 -2.93969995e+03 -2.88909253e+03 -2.92466943e+03 -2.88547778e+03 -3.03837231e+03 -3.16993555e+03 -3.14139209e+03 -3.16893237e+03 -3.10955249e+03 -3.24759985e+03 -3.37328564e+03 -3.27279492e+03 -3.33450781e+03 -3.49656885e+03 -3.62864917e+03 -3.49292676e+03 -3.44661182e+03 -3.57927563e+03 -3.60972119e+03 -3.78376465e+03 -3.71807886e+03 -3.55320142e+03 -3.70587476e+03 -3.85349390e+03 -3.98925708e+03 -4.13625049e+03 -4.07352368e+03 -3.92105078e+03 -3.84176733e+03 -4.08574170e+03 -4.23079932e+03 -4.17201367e+03 -4.29151904e+03 -4.19033838e+03 -4.07494312e+03 -4.21072852e+03 -4.48228906e+03 -4.52552051e+03 -4.40069189e+03 -4.58711670e+03 -4.54639844e+03 -4.31762256e+03 -4.45273193e+03 -4.66104150e+03 -4.82755615e+03 -4.87780957e+03 -4.63445459e+03 -4.53851855e+03 -4.69572510e+03 -4.95362939e+03 -5.01935498e+03 -4.92643604e+03 -4.92951416e+03 -4.82462451e+03 -5.03515283e+03 -5.20368262e+03 -5.07022900e+03 -5.12647852e+03 -5.15904297e+03 -5.13740869e+03 -5.03650000e+03 -5.12189941e+03 -5.26298975e+03 -5.47249609e+03 -5.65633643e+03 -5.30388672e+03 -5.12628174e+03 -5.35980029e+03 -5.45742871e+03 -5.64685352e+03 -5.71965869e+03 -5.48941553e+03 -5.47629785e+03 -5.46457324e+03 -5.68855566e+03 -5.92199023e+03 -5.81186230e+03 -5.65228418e+03 -5.49667480e+03 -5.65009766e+03 -5.86506787e+03 -5.93234180e+03 -6.00581885e+03 -5.94394824e+03 -6.02745850e+03 -5.87157422e+03 -5.81502002e+03 -6.00011572e+03 -5.96946045e+03 -6.19875830e+03 -6.16413428e+03 -5.87990576e+03 -5.99667334e+03 -6.11927246e+03 -6.34216943e+03 -6.43231104e+03 -6.25171387e+03 -6.17261816e+03 -6.00456494e+03 -6.30178418e+03 -6.51945361e+03 -6.35443018e+03 -6.31252197e+03 -6.18027295e+03 -6.37321484e+03 -6.59387744e+03 -6.49163086e+03 -6.50303516e+03 -6.36910596e+03 -6.43749268e+03 -6.57049512e+03 -6.44558154e+03 -6.70655176e+03 -6.82934717e+03 -6.65566406e+03 -6.38159180e+03 -6.38963135e+03 -6.59346484e+03 -6.48979785e+03 -6.69706201e+03 -6.90681396e+03 -6.77111377e+03 -6.56990186e+03 -6.40853467e+03 -6.74979248e+03 -6.98119629e+03 -6.79169287e+03 -6.88318701e+03 -6.73239355e+03 -6.62601807e+03 -6.82141064e+03 -6.81947754e+03 -6.94806738e+03 -6.87895898e+03 -6.86012061e+03 -6.83943359e+03 -6.79224268e+03 -6.96620264e+03 -6.97397119e+03 -6.93423779e+03 -6.82090576e+03
    4.83939934e+01 -1.75316960e-01 -4.84151382e+01 -9.97726440e+01 -1.54347839e+02 -2.10613312e+02 -2.45760620e+02 -2.79837494e+02 -3.36070221e+02 -3.95281128e+02 -4.56277222e+02 -5.05772400e+02 -5.31774170e+02 -5.85444214e+02 -6.47235962e+02 -7.06728760e+02 -7.57240479e+02 -7.86610046e+02 -8.35237976e+02 -8.70230408e+02 -9.42313721e+02 -1.00858563e+03 -1.01339728e+03 -1.06513989e+03 -1.16272644e+03 -1.21229138e+03 -1.20540552e+03 -1.26627441e+03 -1.34712024e+03 -1.36477722e+03 -1.44155176e+03 -1.50621326e+03 -1.49082568e+03 -1.54097827e+03 -1.61973071e+03 -1.70620642e+03 -1.79156384e+03 -1.79242883e+03 -1.76814880e+03 -1.78747546e+03 -1.91036902e+03 -1.99667126e+03 -2.01041907e+03 -2.05204492e+03 -2.04346045e+03 -2.15862036e+03 -2.25403271e+03 -2.24301074e+03 -2.26949219e+03 -2.28893970e+03 -2.36433203e+03 -2.39383569e+03 -2.44180396e+03 -2.53417358e+03 -2.63996948e+03 -2.75853662e+03 -2.65500415e+03 -2.58152612e+03 -2.70406958e+03 -2.77918774e+03 -2.89983447e+03 -2.95528442e+03 -2.93188110e+03 -2.97358740e+03 -2.93874536e+03 -3.09188184e+03 -3.21331006e+03 -3.17134229e+03 -3.19355005e+03 -3.14212573e+03 -3.29564136e+03 -3.41312500e+03 -3.29743945e+03 -3.35491187e+03 -3.53430298e+03 -3.68473364e+03 -3.52296777e+03 -3.47184229e+03 -3.64360571e+03 -3.69526172e+03 -3.83566455e+03 -3.73903296e+03 -3.58071875e+03 -3.73952466e+03 -3.89482202e+03 -4.05177954e+03 -4.16000586e+03 -4.08097705e+03 -3.95443262e+03 -3.90960034e+03 -4.14628223e+03 -4.28354980e+03 -4.22920605e+03 -4.33294873e+03 -4.25524023e+03 -4.14944238e+03 -4.28130371e+03 -4.52018994e+03 -4.56607715e+03 -4.45263574e+03 -4.60348340e+03 -4.57955469e+03 -4.39385547e+03 -4.50313525e+03 -4.70888867e+03 -4.90604053e+03 -4.97826562e+03 -4.72967334e+03 -4.60751660e+03 -4.73008203e+03 -4.99775537e+03 -5.06731396e+03 -4.96871973e+03 -4.99949072e+03 -4.90944043e+03 -5.10037158e+03 -5.21843555e+03 -5.09797900e+03 -5.18230225e+03 -5.25856836e+03 -5.21009717e+03 -5.09226416e+03 -5.17095654e+03 -5.34150732e+03 -5.56000098e+03 -5.69486768e+03 -5.36568750e+03 -5.21616357e+03 -5.43044531e+03 -5.51375977e+03 -5.73046240e+03 -5.77578857e+03 -5.55933984e+03 -5.50426562e+03 -5.49133643e+03 -5.75710938e+03 -6.02343604e+03 -5.91291162e+03 -5.73202881e+03 -5.53752881e+03 -5.71190576e+03 -5.95372998e+03 -6.01322021e+03 -6.06685840e+03 -6.00614062e+03 -6.09973828e+03 -5.95017871e+03 -5.86370068e+03 -6.07280762e+03 -6.04238818e+03 -6.25271875e+03 -6.25793164e+03 -5.93448193e+03 -6.03771240e+03 -6.18989795e+03 -6.43618164e+03 -6.51073779e+03 -6.33484863e+03 -6.21709570e+03 -6.05117432e+03 -6.39066748e+03 -6.63792480e+03 -6.43989014e+03 -6.39735693e+03 -6.21075684e+03 -6.40767871e+03 -6.69030762e+03 -6.54238428e+03 -6.60253027e+03 -6.46325488e+03 -6.53362158e+03 -6.65527148e+03 -6.49581543e+03 -6.75494727e+03 -6.88646875e+03 -6.72305420e+03 -6.49572656e+03 -6.50546094e+03 -6.65643506e+03 -6.55096729e+03 -6.83727393e+03 -7.02515820e+03 -6.84303027e+03 -6.62528906e+03 -6.46446973e+03 -6.75889160e+03 -7.06336963e+03 -6.92169043e+03 -7.03011426e+03 -6.84205713e+03 -6.66759131e+03 -6.86044971e+03 -6.86245264e+03 -7.00224170e+03 -6.98725830e+03 -6.93878760e+03 -6.92573584e+03 -6.87178271e+03 -7.11881152e+03 -7.04707666e+03 -6.97375977e+03 -6.87962305e+03
    4.71934700e+01 -3.78635478e+00 -5.30965614e+01 -1.05195572e+02 -1.59054749e+02 -2.16331268e+02 -2.50673187e+02 -2.83648315e+02 -3.42865295e+02 -4.04987305e+02 -4.68745636e+02 -5.19145996e+02 -5.39865601e+02 -5.90570923e+02 -6.55833435e+02 -7.17673706e+02 -7.68013428e+02 -7.97373047e+02 -8.47631287e+02 -8.79009277e+02 -9.55281921e+02 -1.03087488e+03 -1.02558533e+03 -1.07327930e+03 -1.17589648e+03 -1.22862781e+03 -1.21945667e+03 -1.28749866e+03 -1.37518689e+03 -1.37982874e+03 -1.45728223e+03 -1.52904224e+03 -1.50907983e+03 -1.56240234e+03 -1.64667224e+03 -1.73259412e+03 -1.81676111e+03 -1.81952905e+03 -1.79651624e+03 -1.81514185e+03 -1.93674512e+03 -2.02790625e+03 -2.03458362e+03 -2.07889990e+03 -2.07972803e+03 -2.18313818e+03 -2.29480835e+03 -2.27935620e+03 -2.30057495e+03 -2.33661938e+03 -2.40838940e+03 -2.43732056e+03 -2.47942065e+03 -2.56590601e+03 -2.66179834e+03 -2.77673193e+03 -2.69005371e+03 -2.62161450e+03 -2.74408984e+03 -2.83609131e+03 -2.95301953e+03 -2.99607300e+03 -2.97652271e+03 -3.01565649e+03 -2.97738940e+03 -3.13609814e+03 -3.24939844e+03 -3.20606055e+03 -3.24878394e+03 -3.19021313e+03 -3.34202368e+03 -3.46728467e+03 -3.35076270e+03 -3.39730054e+03 -3.58782056e+03 -3.72174634e+03 -3.56732056e+03 -3.53512061e+03 -3.71344092e+03 -3.76142920e+03 -3.88637720e+03 -3.81185547e+03 -3.66822217e+03 -3.80065625e+03 -3.93766992e+03 -4.09619238e+03 -4.21698535e+03 -4.14148730e+03 -4.01842773e+03 -3.96582275e+03 -4.21445605e+03 -4.35229004e+03 -4.29204492e+03 -4.40395898e+03 -4.31799561e+03 -4.19748242e+03 -4.31874365e+03 -4.59369482e+03 -4.66338135e+03 -4.50262793e+03 -4.65793750e+03 -4.65376807e+03 -4.44044287e+03 -4.57914600e+03 -4.77944043e+03 -4.96906494e+03 -5.05675000e+03 -4.81071533e+03 -4.67028125e+03 -4.79387842e+03 -5.06509521e+03 -5.12012207e+03 -5.02764648e+03 -5.09190039e+03 -5.02800586e+03 -5.16982715e+03 -5.29387061e+03 -5.18988281e+03 -5.25745557e+03 -5.32030664e+03 -5.30603223e+03 -5.19405908e+03 -5.26092627e+03 -5.43878467e+03 -5.64180713e+03 -5.73481348e+03 -5.45579443e+03 -5.31419727e+03 -5.49458789e+03 -5.60274512e+03 -5.79472412e+03 -5.85806006e+03 -5.63346143e+03 -5.60245117e+03 -5.62007861e+03 -5.88271045e+03 -6.09618213e+03 -5.99065332e+03 -5.82030420e+03 -5.64118994e+03 -5.79731348e+03 -6.02122803e+03 -6.11429199e+03 -6.15558350e+03 -6.14024756e+03 -6.21836182e+03 -6.01675684e+03 -5.93793359e+03 -6.14063818e+03 -6.11507861e+03 -6.34463525e+03 -6.31958398e+03 -5.98947852e+03 -6.14542139e+03 -6.30313184e+03 -6.53501367e+03 -6.61863965e+03 -6.42249121e+03 -6.28549902e+03 -6.14140332e+03 -6.47219043e+03 -6.73361914e+03 -6.55835498e+03 -6.49567773e+03 -6.29395752e+03 -6.53297070e+03 -6.77925977e+03 -6.64154785e+03 -6.69549902e+03 -6.56693066e+03 -6.65252246e+03 -6.77827295e+03 -6.57872705e+03 -6.83443945e+03 -6.97238867e+03 -6.81262256e+03 -6.60719141e+03 -6.58283252e+03 -6.81004102e+03 -6.66664648e+03 -6.90578955e+03 -7.17718018e+03 -6.98012549e+03 -6.69772803e+03 -6.52458984e+03 -6.89701270e+03 -7.14673730e+03 -7.00705029e+03 -7.18410498e+03 -6.89967773e+03 -6.72954541e+03 -6.99784668e+03 -6.96691895e+03 -7.11170703e+03 -7.09388916e+03 -7.04372656e+03 -6.98878906e+03 -6.96630127e+03 -7.23553467e+03 -7.16547217e+03 -7.06168604e+03 -6.97864697e+03
    4.63290787e+01 -6.68896103e+00 -5.74676056e+01 -1.08623169e+02 -1.62086166e+02 -2.19601929e+02 -2.53242371e+02 -2.87417847e+02 -3.46567871e+02 -4.07398712e+02 -4.71243225e+02 -5.23049622e+02 -5.41766479e+02 -5.91215332e+02 -6.58229431e+02 -7.22290100e+02 -7.75420715e+02 -8.04499695e+02 -8.54316528e+02 -8.86684998e+02 -9.61895630e+02 -1.03669812e+03 -1.03190820e+03 -1.07901306e+03 -1.18246436e+03 -1.23478308e+03 -1.22351636e+03 -1.28967664e+03 -1.38275879e+03 -1.39063159e+03 -1.45849353e+03 -1.52118372e+03 -1.50910828e+03 -1.57133618e+03 -1.66191223e+03 -1.74635156e+03 -1.82502551e+03 -1.82420312e+03 -1.80492627e+03 -1.82805774e+03 -1.95121606e+03 -2.04261719e+03 -2.03729382e+03 -2.07815112e+03 -2.09193457e+03 -2.19209668e+03 -2.30712817e+03 -2.29118164e+03 -2.30669922e+03 -2.35227881e+03 -2.42589648e+03 -2.45480737e+03 -2.50579663e+03 -2.58639160e+03 -2.65548950e+03 -2.74876416e+03 -2.69440576e+03 -2.65800415e+03 -2.77316821e+03 -2.83878247e+03 -2.93858130e+03 -3.00239453e+03 -2.99804858e+03 -3.02927002e+03 -3.00001807e+03 -3.14276440e+03 -3.24036401e+03 -3.21766528e+03 -3.25654297e+03 -3.20695459e+03 -3.36299316e+03 -3.46598926e+03 -3.34589624e+03 -3.39088867e+03 -3.58795972e+03 -3.76113306e+03 -3.59157544e+03 -3.53305664e+03 -3.72012500e+03 -3.80833667e+03 -3.92416089e+03 -3.80664038e+03 -3.65537769e+03 -3.82569409e+03 -3.97338086e+03 -4.11069629e+03 -4.20070752e+03 -4.14013428e+03 -4.04383667e+03 -3.99303467e+03 -4.23097119e+03 -4.38046729e+03 -4.31379590e+03 -4.41047852e+03 -4.34438525e+03 -4.24779785e+03 -4.36565186e+03 -4.61073682e+03 -4.66541943e+03 -4.49989453e+03 -4.64707275e+03 -4.69139258e+03 -4.51600098e+03 -4.60202002e+03 -4.77069385e+03 -4.99378467e+03 -5.10405371e+03 -4.85799023e+03 -4.70408154e+03 -4.82554443e+03 -5.06615479e+03 -5.11151465e+03 -5.02835156e+03 -5.11291504e+03 -5.05880762e+03 -5.18855957e+03 -5.28372754e+03 -5.20393164e+03 -5.27413965e+03 -5.33986230e+03 -5.34228613e+03 -5.23071094e+03 -5.30732910e+03 -5.47345020e+03 -5.64787891e+03 -5.73407812e+03 -5.48678516e+03 -5.37789258e+03 -5.52448975e+03 -5.62029688e+03 -5.80781885e+03 -5.86049512e+03 -5.63234814e+03 -5.60316699e+03 -5.64130859e+03 -5.91926611e+03 -6.13019482e+03 -6.01760791e+03 -5.85599756e+03 -5.68360498e+03 -5.81873779e+03 -6.04938232e+03 -6.15309619e+03 -6.17597656e+03 -6.15605957e+03 -6.25489014e+03 -6.05923389e+03 -5.98405420e+03 -6.16772217e+03 -6.11565283e+03 -6.31350977e+03 -6.32003955e+03 -6.05103125e+03 -6.19100195e+03 -6.33509326e+03 -6.53983740e+03 -6.59161816e+03 -6.45407617e+03 -6.32494092e+03 -6.15780566e+03 -6.49819434e+03 -6.74228174e+03 -6.59339697e+03 -6.51336816e+03 -6.27930859e+03 -6.55765869e+03 -6.81855566e+03 -6.64351953e+03 -6.67901709e+03 -6.59530615e+03 -6.73099561e+03 -6.78873193e+03 -6.57694824e+03 -6.84507275e+03 -6.99753711e+03 -6.86550195e+03 -6.66163330e+03 -6.63524707e+03 -6.78563867e+03 -6.65869971e+03 -6.93545752e+03 -7.19153076e+03 -6.94751758e+03 -6.73212354e+03 -6.56691455e+03 -6.89644971e+03 -7.17143750e+03 -7.04122852e+03 -7.25215674e+03 -6.94471631e+03 -6.76007129e+03 -7.04698340e+03 -7.01796484e+03 -7.09057861e+03 -7.07285889e+03 -7.10715869e+03 -7.05425049e+03 -7.02015967e+03 -7.24862256e+03 -7.18689697e+03 -7.06528857e+03 -6.97075244e+03</data></ring16_3>
</opencv_storage>
